ply
format ascii 1.0
comment Created by Open3D
element vertex 1605
property double x
property double y
property double z
end_header
-0.0314643 0.00228455 1.01786
0.00826101 -0.0342304 0.991529
0.00940796 -0.0257588 1.024
-0.00400552 0.0350639 0.989914
0.0304065 0.0202921 1.00071
-0.0302612 0.0145777 1.01727
-0.0131601 0.0205466 1.02792
-0.0114724 0.00170748 0.965122
0.0176783 0.0306467 0.989929
0.036185 -0.00601879 0.996531
0.00850624 0.000498014 0.964395
-0.0128196 -0.0233568 1.02539
-0.00572661 0.0073206 1.0354
0.0153389 0.00336351 1.03348
-0.0316876 0.00768052 1.01671
0.0188611 -0.0322072 1.00305
0.0110204 0.00647408 1.03428
-0.0147772 0.032701 1.00685
0.0143479 -0.00451872 0.967391
-0.00723978 0.0324977 1.01482
0.0291516 -0.00466088 0.976923
-0.0225755 -0.0272049 0.991282
0.0161053 -0.0210508 0.974931
0.034274 0.00815406 1.0092
0.00564963 -0.034146 0.988829
0.024529 0.0290765 1.00042
-0.0153089 -0.0277541 1.01729
-0.0201026 -0.00102472 1.03069
0.0230988 -0.0265341 0.989572
-0.0266331 -0.0136053 0.978908
0.00636411 -0.0277506 0.975878
0.0318886 -0.0147699 1.00944
0.0118651 0.0155787 1.03117
0.0367413 -0.000486291 1.00251
0.00621293 -0.0352482 0.993553
0.00107644 -0.0194716 0.96713
0.027954 0.0147953 0.981689
-0.0214505 0.0278451 0.98887
-0.0165455 -0.0223061 1.02541
-0.0331949 0.018012 0.995274
0.0188133 0.00908555 0.969727
0.0330083 0.00362731 0.983421
-0.0164819 -0.0317834 0.992467
0.0295195 -0.00141019 0.976402
0.0328162 -0.0185488 0.99373
0.016932 0.0262502 0.979827
0.00140521 -0.0301602 0.97805
-0.0209608 0.0120617 1.02828
0.0349989 0.0125896 0.99785
0.0217801 -0.0282219 0.991546
-0.0182962 0.0173937 0.97273
0.0071107 -0.034494 0.991489
-0.0141446 0.00157556 0.966338
-0.0359155 0.010017 1.0061
-0.0360046 -0.000191515 0.989247
-0.0273838 -0.00589947 1.02403
0.0347021 0.00988792 0.991529
-0.00304146 0.0318414 0.980205
0.0298478 -0.00160395 1.02176
0.0332184 0.0064435 0.984998
-0.000807775 0.0296433 0.97782
-0.0181238 -0.0200438 0.976017
-0.0199929 0.0160697 1.02738
-0.0318744 -0.0156426 0.988432
0.0137003 0.0309537 0.983921
0.0028466 0.0254155 0.973494
0.0130148 -0.0224295 0.974605
-0.00250457 0.0267157 1.02498
0.0224566 0.0300156 1.00281
0.0133715 0.0263849 0.977835
-0.024189 -0.0265436 1.00688
0.00101286 -0.0239847 1.02816
0.00598708 -0.0268696 1.02416
-0.0261149 0.023777 0.988673
-0.0249669 -0.00513692 1.02669
0.0169749 -0.0246249 0.978274
0.0189525 -0.0177949 0.973567
-0.011432 -0.00412425 1.03475
0.0245657 0.00587761 0.973764
-0.00871001 0.0347103 1.00518
-0.0125215 0.0177269 1.0303
-0.0057254 0.0285405 1.02291
0.0231389 -0.0275518 0.993297
0.0114054 -0.0213417 0.972921
0.0101242 0.0338491 0.989635
-0.0277215 -0.0193566 1.01334
-0.0363475 0.00676246 0.998246
0.0127353 -0.0261795 1.02187
-0.00416354 -0.00264515 0.961921
-0.0220248 -0.0185397 1.02421
0.032268 -0.00934068 0.986111
-0.013832 -0.0257397 1.02284
-0.00416734 -0.0230454 1.02773
0.0205131 -0.0288751 1.01411
-0.0169046 0.0121469 1.03112
-0.0242231 0.0221327 0.982497
0.0252806 -0.0264235 0.998287
-0.00448955 0.00431483 1.03665
0.0202727 -0.00846781 1.02939
-0.0183182 0.0184086 1.02682
0.036447 -0.00450327 1.0064
-0.0143371 0.0105092 0.96729
-0.0202786 -0.00446047 1.02963
0.00693203 0.0360044 1.00386
0.0143033 0.0316758 0.986993
0.0326965 0.0148343 0.990433
-0.033665 0.0160989 0.993492
-0.0262694 -0.0106651 0.976604
0.0134315 -0.0343388 0.996651
-0.00399872 -0.0186225 1.03062
-0.0294104 -0.021946 0.996917
-0.0332204 0.00669234 0.985311
0.0163862 0.0125683 1.0297
0.0266299 0.0207287 1.01556
0.0354141 -0.00356842 1.01077
-0.025323 0.00462385 0.974918
-0.0250566 0.0222531 0.983933
0.0138053 -0.0330473 1.00611
0.0250547 0.0153927 0.978762
-0.0277399 0.0119082 0.981271
-0.0342148 0.0140768 0.992885
0.0278125 -0.00408404 0.975613
-0.00652003 -0.0054901 0.96337
0.0124132 0.0310973 1.01731
-0.00542438 -0.0358646 1.00525
0.033375 0.00370139 0.984448
0.00126362 0.0176389 1.03264
-0.0358218 -0.00892233 0.998639
0.016231 -0.0287058 0.98193
-0.00239264 0.000897363 0.962904
-0.0315159 0.0202341 0.992743
0.0171415 -0.0288489 0.983356
-0.0345674 0.00473359 1.0116
-0.00662763 0.00504123 1.0361
0.0239145 0.00543509 0.972909
-0.0345774 -0.00778413 0.98949
-0.011951 0.0055741 0.965629
-0.0213897 -0.00358334 0.969279
-0.0298967 0.00403268 1.02064
0.0317261 -0.00713875 0.983277
-0.0126603 0.0288229 1.01899
0.0360427 0.00120727 1.00709
-0.0155493 -0.0264134 1.01979
-0.0118229 -0.016373 0.97057
0.000940742 0.00563806 1.03605
0.0179021 0.0107799 0.970049
-0.0344444 -0.00243062 0.986452
-0.00357043 0.0194944 0.967388
0.000555958 0.0217226 0.969697
-0.028104 0.00629832 0.978926
-0.00906716 -0.029439 1.01993
-0.00248702 0.0238071 0.971812
-5.01511e-05 -0.0339491 0.986407
0.0345399 0.000484419 0.986484
0.00396024 -0.0368336 0.99756
0.0340714 -0.000469139 0.985293
0.0263771 -0.0248867 0.993687
-0.0257536 -0.0136073 1.02254
-0.0217888 0.0296599 1.00014
-0.0158992 -0.033959 0.999776
-0.0146425 0.0152719 0.969151
-0.0174903 0.0129003 0.96891
0.015877 0.0274872 0.980692
0.00553195 0.0165294 1.03347
0.0168379 0.0326273 1.00591
0.0122351 -0.00733866 1.03409
0.0297178 -0.0100783 1.01905
-0.0333984 -0.0116077 1.01401
-0.00571099 -0.000124111 1.03808
-0.0255004 -0.0128592 1.02309
0.00262725 0.0355067 0.990873
-0.0326674 -0.00590247 1.0166
-0.00113454 0.0117731 0.965384
0.0336544 -0.0140161 1.00497
0.0325393 0.0019169 1.01601
0.0299617 -0.00401398 0.97788
0.0283728 -0.00549692 0.976352
0.013356 0.0339005 0.999658
-0.0180869 -0.0330412 1.00381
0.0110901 0.012903 0.967781
-0.00392627 0.0360341 0.993924
0.0185283 -0.0300179 1.01371
0.00124223 0.0379879 1.00049
-0.00283371 -0.016874 1.03176
-0.0244754 0.0126278 0.977555
-0.0147105 -0.0231533 1.02512
-0.0105095 0.0176445 1.03074
0.0318035 -0.0137498 1.01212
0.0168714 -0.00885139 1.03118
-0.00702614 -0.0339983 0.986587
0.0277704 0.0231168 0.994261
0.00872853 0.00145076 0.96446
0.00681983 0.0242973 1.02717
0.0114125 0.0320162 0.983496
0.0233448 -0.0234754 0.983422
0.0220395 0.0189485 1.02133
0.0169636 -0.00878832 0.969688
0.0179384 0.025515 0.979542
0.0137153 -0.0288382 1.01789
-0.0149592 -0.00644533 1.0321
0.0245581 0.0156352 1.0214
-0.0186868 0.0249813 0.979172
0.00657504 0.0315838 1.01804
-0.0273078 -0.0231361 1.00795
-0.00427702 0.00364577 0.963246
-0.0193886 0.0108197 0.97033
-0.0315129 -0.0146908 1.01349
-0.018812 -0.0158161 1.0273
-0.0338779 -0.00476128 0.986126
-0.0335986 -0.011317 0.987636
-0.0255901 -0.0230476 1.01151
0.0291145 -0.0134497 0.983279
-0.00730627 -0.0293836 0.978876
-0.0272417 -0.0217121 1.01042
0.0194087 -0.0163594 0.97295
-0.00994032 0.0203503 1.02868
-0.0310518 0.0117088 1.01732
0.012392 0.0212822 0.972139
-0.0105699 0.0140168 0.967105
-0.0191129 0.0150027 0.972106
0.0257725 -0.00993887 1.02448
-0.0210582 -0.0300626 0.997469
0.00790514 0.0293537 1.02149
0.0369523 0.00151629 1.00009
-0.0296023 -0.0166115 1.01412
0.0348442 -0.00131163 1.01136
-0.00518096 -0.0367735 0.998659
0.00984763 -0.0320174 0.98477
-0.0181429 -0.0093835 0.970078
0.00474913 0.0239507 1.02783
0.0211778 0.00576897 1.02944
-0.000841636 -0.019885 1.0308
-0.00902814 -0.0215211 1.02789
-0.00178845 -0.0123074 0.96466
0.00846626 -0.028335 0.977376
0.0248041 0.0276393 0.996135
-0.00253243 -0.0272671 1.02448
-0.0342597 0.013238 1.00627
0.0299673 0.0152512 1.01593
0.0129131 0.0176854 0.970497
-0.0247209 -0.00213815 0.971454
0.00241103 -0.00284104 1.03666
0.00234325 0.0343055 0.986971
-0.0313174 0.00101035 1.0183
0.0149492 -0.0271272 1.01957
0.0215423 -0.0287053 1.00994
-0.0346713 -0.00938252 0.992004
0.00774315 0.0338822 0.986131
0.0153757 -0.030299 1.01517
-0.0249267 0.0264193 1.00119
-0.00225195 -0.0108295 1.03483
-0.00654009 -0.0160724 0.967684
-0.030661 0.00406834 1.01917
0.00553468 0.0199389 0.968975
0.0250185 -0.0245136 1.00925
0.0174574 -0.0339338 0.998823
-0.0251804 -0.021522 0.981998
-0.00896987 0.0350559 0.994892
-0.0309275 -0.0160478 0.986242
-0.0313912 -0.0179881 1.00751
0.00134431 0.0157936 1.03331
0.0176189 -0.0234527 0.977614
-0.0336025 0.0163399 0.993637
0.00139265 -0.0362058 1.00621
0.0209668 -0.0136126 0.972672
0.0280101 0.00909078 0.9787
-0.0217131 -0.0276636 0.990217
-0.0144906 0.0203276 0.973166
-0.0325496 0.00431598 1.01552
0.0326958 0.0153576 1.00939
-0.00713373 0.00432994 1.03628
-0.0363362 -0.00302077 0.996504
0.00764413 -0.0221761 1.02958
0.0213456 -0.0062061 1.02906
0.0346092 0.00647719 0.988808
0.0326742 -0.0181379 0.9979
-0.03436 -0.0138593 1.00572
0.0361111 0.00924674 1.00325
0.00704848 0.00489752 0.964977
0.0140835 -0.0293216 0.981404
-0.0142819 0.0305995 1.01554
-0.0342099 -0.0148671 1.0012
-0.036079 -0.00378541 0.994048
-0.029238 -0.0127437 0.981705
0.0359164 0.00298587 0.991134
0.0137235 0.0322557 1.01344
0.00344287 -0.00584976 1.03583
-0.000866577 0.0344358 1.01219
0.0298332 0.0154755 1.01613
-0.0218543 -0.00605692 0.970267
-0.0130015 -0.0275281 1.02
0.000949076 0.0315609 0.980539
0.0337085 -0.0128943 0.992489
-0.00847188 0.0158691 1.03196
-0.0128228 -0.0195118 0.972861
0.0359172 0.0011725 0.99049
-0.0221662 -0.00853011 1.02743
-0.0360622 -0.00910868 1.00037
-0.00679705 0.00708664 1.03534
-0.0282146 -0.00771806 1.0225
0.00998055 0.0281633 0.977944
-0.00137771 0.0317382 0.980362
0.0152649 0.0320462 0.989695
-0.0330538 -0.0153631 0.994479
0.0255861 0.00876624 1.02534
-0.00304964 0.0177728 1.03201
0.0138902 -0.0306113 0.985027
0.0101064 0.00179376 1.03522
0.00977213 -0.0288737 1.01972
-0.0169124 -0.0161363 0.973183
-0.000699728 -0.0123678 1.03448
-0.0190808 -0.00325628 0.968244
0.0136325 0.0335683 0.997543
0.00903998 -0.0338888 1.00717
0.0229075 0.00103665 0.970666
0.00825596 -0.0259729 0.975294
-0.0309652 0.0115676 1.01751
0.0183778 0.0318052 0.996018
-0.0297006 -0.0201449 0.993057
0.0103523 0.0348873 1.00212
0.0360865 -0.00787168 1.00833
0.0255262 -0.00430688 0.973853
0.0277878 0.00102924 1.02548
-0.0145008 -0.0245824 0.977348
0.026039 0.00133367 0.973078
-0.00984073 0.0325582 1.01208
-0.00322852 0.00212648 0.963058
0.0146283 0.00154442 0.965779
0.0344346 -0.00488458 0.989227
-0.0277675 0.0196858 0.986242
-0.0212576 0.0193673 0.977198
0.0362853 -0.00496041 1.00781
0.0238204 0.024327 0.983927
-0.00458183 0.0284443 1.0232
-0.0345331 -0.0103584 0.992318
0.03083 0.0176643 0.990254
0.00645828 0.025531 1.02589
-0.0281279 -0.00688516 1.02292
0.0291888 0.0111169 1.02008
-0.0115553 0.0241433 0.975222
0.0267647 -0.0170688 1.01845
-0.0259009 -0.00588306 0.973143
-0.0287351 -0.00171913 1.0236
0.00908169 0.0353411 1.00082
0.0202422 0.0270903 1.01311
1.57843e-05 0.0284795 0.976613
0.00380867 -0.0374225 0.999672
0.0354802 0.00859571 0.994433
-0.00447441 0.0345621 0.988272
0.0172184 -0.031599 1.00874
-0.0211363 0.00684739 1.02959
-0.00257348 0.0344169 0.986853
-0.019374 -0.01578 0.974311
-0.0184188 0.0235371 1.02157
-0.0297607 -0.0187859 0.989593
0.0215306 0.0235569 1.01841
-0.00412411 0.0319378 0.98014
-0.00327231 0.0190072 0.966891
0.033754 0.0128065 1.00828
0.0362606 -0.0058495 0.997591
0.00293277 -0.0375147 0.999226
0.00930875 -0.00236291 1.03565
-0.017914 0.0317519 0.993449
-0.0183859 -0.0105673 1.02901
-0.0224724 0.00660545 0.972311
-0.0269474 -0.0235002 0.992573
0.00324454 0.0368712 0.995961
0.0304899 -0.0200679 1.00085
-0.0185435 -0.0276107 1.01444
0.00119547 -0.0362829 0.993503
-0.0362884 0.00661361 0.991725
0.0137932 0.00392327 1.03413
-0.0154029 0.0198621 1.0274
-0.0225543 0.0219537 0.980248
0.0339071 0.0126345 0.990889
-0.0313727 0.0136206 1.01585
-0.00102051 0.0346868 1.01143
-0.023466 0.000126718 0.970871
-0.00965929 0.0327822 0.986525
0.030824 -0.0193226 1.00156
0.0239638 0.00162319 0.971377
-0.0314845 0.0183546 1.00211
0.0187647 0.0208208 0.976203
0.0183491 0.0173638 0.974004
-0.0219379 0.0293822 0.996071
0.0321881 0.0110338 1.01299
3.33946e-05 0.0295565 0.977856
-0.00840752 -0.0336484 0.985528
-0.0173668 -0.0259681 1.01893
-0.0328764 0.0101402 0.986837
-0.0159422 0.0295609 1.01628
0.027568 0.0205818 0.9868
-0.0303792 -0.0116774 1.01881
-0.000385426 -0.0368669 1.00558
0.0358221 0.00806011 0.995762
0.00769663 0.0191342 1.03205
-0.0303074 0.0151259 0.986686
0.0357622 -0.00810455 0.99979
-0.016841 -0.0201942 1.0266
-0.0363903 0.00277281 0.996529
-0.0132865 0.0129188 1.03236
-0.0270771 0.0238432 0.991965
0.0285179 -0.0234366 0.995049
0.0139764 0.0209268 0.973016
-0.00562544 -0.0142871 1.0323
-0.0265725 0.00246469 0.975538
-0.00503035 -0.0367591 0.998284
-0.0182833 0.0166521 0.972124
-0.0241085 -0.0138919 0.975855
-0.014641 -0.0310542 1.01121
0.000616945 -0.0258042 0.972727
0.00622135 -0.0127225 0.966934
0.0174695 0.0197582 0.974736
0.000577736 0.0286648 1.02331
-0.0035625 0.000106708 0.962585
0.0131442 0.00478689 0.965741
-0.00141155 0.0146626 0.965964
0.036343 0.00494566 1.00327
0.028276 -0.0228631 0.992285
-0.00114855 -3.09173e-05 0.962867
-0.000803673 -0.037836 1.00158
-0.013219 0.0342067 0.995603
0.0236483 -0.00802302 1.02671
-0.0362998 0.00384496 0.998668
0.035762 -0.00857643 1.0036
-0.0353528 -0.00912189 1.00664
-0.0220318 -0.00297051 1.02905
0.0273739 0.0220313 0.989999
0.00137633 -0.00313459 0.963351
-0.00809153 -0.0353982 1.0047
-0.00554833 0.034465 1.00919
0.00726693 0.0261611 1.0251
-0.0345768 -0.0010875 1.01185
0.0185663 0.0241044 1.02081
-0.0215187 0.0120746 0.973529
0.0111372 0.0298466 1.01979
0.0347907 -0.00840567 0.99255
0.0303499 0.0188723 1.00956
0.00274009 0.0344585 0.987504
0.00110488 0.029443 0.977897
0.017744 -0.0144519 0.97174
0.0363062 -0.00583939 0.998974
0.0356937 0.0073772 0.99382
0.00237801 -0.0143733 0.966253
-0.00236914 0.00645808 0.964092
0.0243671 -0.019783 1.01966
-0.0352656 0.0102732 0.992149
0.0204406 -0.000655695 1.03119
0.00649183 -0.0333554 0.986575
-0.0355097 -0.0112355 0.999479
-0.0294393 -0.0149468 1.01719
0.0215565 0.0205828 0.977964
-0.0199105 0.0174393 1.02611
0.0226782 -0.0259263 1.01381
0.00733471 -0.0201546 0.969974
-0.00865088 -0.0347928 0.991889
0.0335483 0.00996066 1.01035
-0.00923036 -0.0140797 0.968043
-0.0250667 -0.0195101 0.980594
-0.014426 0.0267495 0.979057
-0.00148139 0.0336189 0.984385
0.00210322 0.0189664 1.03207
-0.0292238 -0.0209726 1.0077
0.0213453 0.0186893 1.02214
0.00536705 0.0239944 0.972055
0.0282895 -0.0220782 1.00366
0.0220539 -0.0181655 0.975338
-0.0198081 -0.0266793 0.982557
0.000100702 -0.0202923 1.03085
-0.0224624 0.0200187 1.02087
-0.012121 0.0326128 1.00971
-0.0225148 0.0133714 0.975494
0.00394323 -0.0117857 0.966063
-0.0098989 -0.00238071 1.03611
0.0265799 3.26284e-05 1.02629
-0.0253161 -0.00445691 0.971578
0.0330531 0.0066115 1.01291
-0.00978576 0.0274434 1.02218
-0.0255209 0.0108193 0.97788
-0.0262751 0.0176972 0.9826
0.00956479 0.0016653 1.03533
0.00108209 -0.0158451 1.03325
0.00593752 -0.0301465 1.01985
-0.00175895 0.0324236 1.01838
-0.0147939 -0.023682 1.02464
0.00981283 -0.0322922 1.01253
0.0352931 -0.00592061 0.992313
0.00614172 0.00534382 0.964955
-0.00334986 -0.0343357 0.987598
0.0187833 0.0309895 0.992801
0.023371 -0.00407831 0.972103
-0.0188649 0.0317685 1.0066
-0.00425716 -0.036261 0.993529
-0.0179039 0.0275017 0.981893
-0.0309384 0.00565744 1.01843
0.00807263 -0.0207886 0.970859
0.0302761 -0.00672603 0.980416
0.0351102 0.0022595 0.988674
-0.0052768 0.018568 0.967047
-0.0284337 -0.0246813 1.00092
0.000791966 -0.0323061 0.981403
0.00966169 0.0313629 1.01759
-0.0102293 0.013321 1.03263
0.018475 -0.00604576 0.969394
-0.0225225 0.0290578 0.996729
0.0361384 0.0062217 0.9948
0.00599514 -0.0245974 0.973057
-0.0184752 0.00889799 1.03072
0.0319741 -0.00188548 0.980362
-0.0178977 -0.0306059 0.991515
0.031197 -0.0188229 1.0015
0.00664045 0.00417601 0.96477
0.0168568 0.0248716 1.02181
-0.000940665 -0.0287492 0.976744
-0.0237732 -0.000876252 0.970832
0.0325304 -0.00401301 1.01725
-0.00241048 -0.0347432 0.988834
-0.0199784 0.027628 0.984679
0.0364545 -0.00547886 1.00675
0.0243176 0.0293553 1.00051
0.0287445 -0.0129779 0.982281
0.0166817 0.0236971 0.976571
-0.0270091 -0.0226176 0.990402
-0.0316291 0.0151556 0.988834
0.0253907 -0.00724484 0.974361
-0.0151195 -0.0127527 0.970328
0.0192614 -0.0135373 1.02795
0.0302138 0.0203435 0.999418
0.0178955 0.0206744 0.975533
-0.023321 0.0253599 0.985649
0.0283661 0.0211252 0.990987
-0.00409745 0.0197993 1.03023
0.00202071 -0.0374117 0.998002
0.0374447 0.00144049 0.995414
-0.0121671 0.0348793 1.00117
0.0335309 -0.0163718 0.994871
-0.0308614 -0.0179855 1.00936
-0.034166 0.0100677 0.988852
-0.0331857 0.0179413 0.996928
-0.00782846 -0.0308524 0.980768
0.00422347 0.0333504 1.01511
0.0361785 0.00990747 1.00107
0.0106823 0.0153336 1.03192
0.00596523 0.0355208 0.992088
-0.0127002 0.0305034 0.983917
-0.0358341 -0.000630634 0.988711
-0.0196301 -0.029275 1.00929
-0.0290169 0.00621975 0.979986
-0.00163564 0.0168466 1.03253
-0.03426 0.0120798 1.00954
0.00448645 -0.0343442 0.988527
-0.0288333 -0.0154627 1.01754
0.0361671 0.00955997 1.00269
0.0140065 0.0335616 1.00688
0.0312534 -0.0178019 1.00393
-0.00816309 -0.0162651 0.968536
-0.0274881 -0.00262021 0.97475
-0.0282241 0.0187658 0.986242
0.00697199 0.0314259 0.981405
-0.0362312 0.00485979 1.00033
-0.0265773 -0.0126847 1.02211
0.00470754 -0.02996 0.977138
0.018642 0.0155458 0.973194
-0.0337847 0.007397 0.986408
0.0148382 0.0295467 0.982567
0.0301897 0.0194636 1.00787
-0.0357493 -0.00834939 0.997494
0.00140075 0.0285849 0.976867
-0.00251668 -0.0119333 1.03423
0.0014234 0.0254813 0.973552
-0.0105613 0.00542489 0.965156
-0.0280044 -0.0176772 0.98321
-0.0303206 0.0135441 1.01844
-0.0194308 0.027704 1.01634
-0.0307537 0.00570169 1.01877
-0.0347773 0.0105452 1.01043
-0.0096098 0.0312733 1.01732
-0.0127383 -0.0149807 1.03017
-0.0297131 0.005242 1.02081
0.0118596 0.00625698 0.965888
-0.0292695 0.00818875 0.981158
-0.0142774 0.0272043 0.979442
-0.0224963 0.00441942 0.971453
-0.0236271 0.00929372 0.974783
-0.0129368 -0.0152243 1.03
-0.0210626 0.0304874 0.997366
-0.0273018 0.0197595 1.01407
-0.0279847 0.0139724 1.02074
-0.00634949 0.0340654 1.00989
-0.0351627 0.0050029 0.986848
-0.0160934 0.00368148 0.96739
0.0213522 -0.0255702 0.982624
0.0258234 -0.000160007 0.97322
0.0120789 0.0342584 0.999038
-0.00865932 -0.022562 0.972471
-0.00612433 0.0308343 0.979466
0.0238555 -0.0197257 0.979887
0.0128695 -0.0279705 1.01944
-0.0365369 0.00132545 0.990743
-0.00122968 -0.032862 0.983104
-0.0247596 0.00276962 0.973492
0.0218268 0.029772 0.994634
0.0286148 -0.000814673 0.975563
-0.00130525 -0.0199135 0.966971
-0.00806586 -0.00751786 0.964867
0.0359268 -0.00555246 1.01022
-0.0257928 -0.000800106 1.02752
-0.0354284 -0.00902912 0.996309
0.0140018 0.0230295 0.9742
-0.00280141 -0.0243035 1.02697
-0.0344048 -0.00584844 1.01161
0.0259 -0.0206167 0.984246
-0.0028632 0.0343562 1.01223
0.0322358 0.0104444 0.984438
-0.0226522 -0.0270523 0.990937
0.00917981 0.0343876 0.991595
0.0346662 -0.0100189 0.993268
-0.0300664 -0.0116052 1.01914
0.0116964 -0.0168205 1.0307
-0.0248924 -0.0130425 0.976328
-0.0137023 -0.0229955 0.975326
0.0032966 0.00746902 0.96504
-0.0334403 -0.0125974 0.988191
-0.0309469 -0.020981 1.00268
-0.0247232 -0.0277743 1.00066
-0.0130628 0.00377576 0.966006
0.0223558 -0.0289777 0.995968
-0.0358803 -0.00128155 0.989786
-0.00584169 -0.0357297 0.992925
0.0192912 -0.00761988 1.03037
-0.0134921 0.0318948 1.01122
0.00402705 -0.0311534 1.01943
-0.0321684 -0.000431433 1.01685
-0.0323439 -0.0170834 0.996477
0.0145822 0.0138404 0.969496
-0.0263713 0.0224949 0.986239
-0.00564634 -0.00832749 1.03519
0.00444943 0.0266141 1.025
-0.00631637 0.0310087 0.979723
0.0136187 0.0325199 0.988241
0.0207639 -0.0307512 0.997416
-0.00159185 0.037987 0.999799
-0.0330691 0.00469521 1.01447
-0.013092 -0.0321339 0.986641
-0.0305124 -0.0158162 0.985257
-0.0289053 0.0199128 1.00756
-0.00290688 0.0139205 0.965612
0.00530933 0.0290494 0.978125
0.0271477 -0.00924233 0.976733
0.00233983 -0.000750813 1.03691
0.0214785 0.00501409 0.970297
0.000596619 0.0261954 0.974278
0.00174424 -0.0136549 1.03438
0.0295182 -0.00209546 0.976545
-0.00437443 0.00480916 0.963482
-0.00293178 0.0318277 0.980207
0.0321615 -0.000531893 0.979992
-0.0166781 0.0261635 1.01964
0.0184847 0.00559207 1.03098
-0.0345543 0.013982 1.00044
-0.0120835 0.021783 0.973118
0.0126992 -0.0301374 1.01666
0.0121407 -0.0339503 0.993991
0.030273 -0.0180804 1.00677
-0.0220193 -0.0199547 1.02365
-0.0105712 -0.0343514 0.992509
-0.0289764 -0.00787203 1.0217
0.0268318 0.013099 0.979434
0.0226424 0.015522 1.02321
0.0352438 -0.00801774 0.993561
-0.0287878 0.0134443 0.983432
-0.0361938 0.00271376 1.00069
0.0045764 -0.00382702 0.964364
0.00911673 -0.0341737 0.992092
-0.0302214 -0.0113963 1.01907
-0.0202134 0.030961 1.00227
0.0160608 0.0183784 0.973015
0.0284483 0.00593245 1.02471
0.0237844 -0.0198507 1.02089
-0.0329252 0.000375844 0.983125
0.00596646 0.0242104 0.97228
-0.0265539 -0.0234933 0.991189
-0.00329508 -0.0290074 1.02279
-0.0360655 0.00143427 1.00315
0.0169937 -0.00899886 0.969765
-0.00423982 -0.0223455 0.970138
0.013738 -0.031028 0.986099
0.0217588 0.0304934 0.996545
0.0284147 0.0188162 0.984997
-0.0308078 0.00528989 1.01873
-0.0352885 0.00534095 0.987174
0.0215752 0.018394 0.976762
-0.0215071 -0.0206081 0.978156
-0.0303289 -0.0146766 1.01586
-0.0248648 -0.0188074 0.979896
0.00287474 -0.00470872 0.964119
-0.0359132 -0.00239726 0.991337
-0.0191642 0.031403 1.00716
-0.0139092 0.0059051 1.03351
-0.0164905 -0.000769079 1.03281
-0.03334 -0.000491547 1.01462
-4.64511e-05 0.0329964 1.01651
0.0139178 -0.0229574 1.02469
0.00861746 -0.0241965 0.973978
-0.00850457 -0.0346904 1.00713
-0.00882393 0.0344835 1.00591
0.0216063 0.00194187 0.969448
-0.00182826 0.016727 1.03255
-0.0226125 -0.0286767 1.00516
0.0069479 -0.0132505 1.03363
0.0280818 0.0147816 1.01883
-0.0279771 0.0162293 0.983938
0.0142826 0.0200257 1.02676
0.010392 -0.0344587 1.00403
-0.035567 0.00906539 0.991134
0.0232513 -0.0230316 1.01708
0.0142911 0.023811 1.02448
0.0269015 -0.00161602 0.974377
-0.00548631 -0.0364845 0.997299
0.0218992 -0.0289093 0.994341
0.00478579 0.0206846 1.03119
-0.0229279 -0.0163773 1.02419
0.025885 0.0219162 1.01433
0.0096689 0.0249904 0.973898
-0.0126902 -0.0186277 1.02841
-0.0330688 8.19753e-05 1.01506
-0.010497 -0.0158667 0.969573
-0.0111822 -0.0278744 1.02106
0.0147004 -0.00182668 1.03491
0.0180859 0.0201642 1.02393
-0.0272283 0.0247722 0.995996
-0.0305652 -0.0210215 0.999873
-0.0149779 -0.0103259 1.03101
0.00852151 0.000173812 0.964476
-0.00409172 0.0317677 0.979954
-0.0041675 0.0326052 1.01743
0.0204215 0.0200224 0.976883
0.0319391 -0.0118727 1.01478
0.0173739 0.0302703 0.988344
0.0273949 0.0236502 1.00677
-0.0296856 -0.011891 0.981745
-0.0026446 -0.0368331 0.995195
-0.00606446 0.0187576 1.03069
0.0154285 0.0267404 1.02177
0.00634446 0.00674392 1.03499
0.0188797 0.0301556 0.990623
0.0341846 0.000681647 1.01228
0.0152299 0.0326635 0.99428
0.00901041 0.0267747 0.975896
-0.0348849 0.0130999 1.00238
0.0133685 -0.0327391 0.990782
0.00386498 -0.0298761 0.977201
-0.0210521 0.00189964 0.969533
-0.00999716 0.0226871 0.973099
-0.0200616 -0.030674 1.0055
0.0162972 -0.0047896 0.968197
-0.0173551 -0.0254512 1.01999
0.0259686 0.0233539 0.988703
-0.0302939 -0.0126874 0.983021
-0.0255293 -0.0223664 1.01275
0.0242881 -0.0265234 1.00552
0.00683144 0.0333884 0.98445
-0.00898592 -0.0342554 1.00843
0.0182705 -0.025779 1.01892
0.0125609 0.000794401 0.965405
0.00328693 -0.0205653 1.03152
0.0210038 0.00377165 0.969237
-0.0281617 -0.00219794 0.975774
0.016035 0.0120474 0.969486
-0.0365666 0.00226872 0.992684
0.0104097 -0.0193214 1.03037
0.0190509 0.0277589 1.01376
-0.011162 -0.0337621 1.00843
0.013737 -0.0149374 1.03037
-0.0305992 0.0152834 0.987281
-0.0134337 -0.0293507 1.01586
0.00319677 -0.00402291 1.03627
0.00579629 -0.0114051 1.03422
-0.0116101 -0.0343027 1.00588
0.0183041 -0.0322242 0.995167
-0.022195 0.0256593 0.983184
0.00994538 0.0290715 1.02143
0.0256597 -0.0231923 1.01033
-0.00487732 0.0331243 1.01481
0.0323175 -0.00691029 0.984643
0.0125979 0.0341365 1.00185
0.0235134 -0.0188739 1.02235
0.0135636 -0.0257013 0.977587
-0.0130226 -0.00905936 0.967649
0.0348042 0.0112795 0.994457
-0.0095648 0.0135074 1.03266
-0.0295781 -0.0232702 1.00203
0.0154887 -0.0121145 1.03058
0.0242242 -0.00356476 0.972669
0.0231776 0.0139075 0.976198
-0.00360642 0.0361193 1.00497
0.00204978 -0.0161625 0.966585
0.00815956 0.0331507 1.01494
-0.0246096 -0.00473556 1.0271
-0.00909139 -0.0227495 1.02681
0.033744 -0.0021992 0.985521
-0.0263703 -0.00677693 1.02467
-0.0308877 0.0108296 1.01776
0.00616207 -0.00501548 0.965065
0.00358238 -0.0343659 0.987787
0.01461 -0.032452 1.00772
-0.035971 0.00450391 1.00578
-0.00557543 -0.0348659 0.989221
0.0270388 -0.00459758 1.0246
-0.0239331 -0.028774 1.00197
-0.0192223 -0.0321767 1.0038
-0.0200746 0.0282206 1.01525
0.0364927 -0.00496688 0.99792
0.0282002 0.0153538 0.982287
-0.0243727 -0.0272133 0.997292
0.0198568 0.0305403 0.993392
-0.0334087 -0.0118997 1.01334
-0.0271947 -0.0229184 0.991859
-0.00943664 -0.0244079 1.0253
0.0326539 0.0153686 0.992911
-0.0360841 -0.000724121 0.990386
0.000335585 -0.0194343 1.03132
0.0105438 -0.0258743 0.976309
-0.0173084 -0.0286776 1.01346
-0.00891374 0.0254489 1.02479
-0.0108438 -0.00149891 1.03582
-0.0359526 -0.000685033 1.00512
-0.026301 0.0237902 0.989311
0.0234251 0.0165175 0.977681
-0.017353 -0.000363125 0.967666
0.0353557 0.0125178 1.00003
0.0264451 0.0260446 1.00192
-0.0151184 -0.03062 0.985842
0.0228196 0.0127205 0.97528
-0.0161642 0.0284641 0.982458
0.0329082 -0.0130464 1.01018
0.00649796 -0.0366668 0.999233
-0.019355 0.0309403 0.993624
0.0190416 0.0287632 0.986987
0.0324376 -0.00748174 1.0162
0.0152675 -0.0293463 0.982777
-0.0167581 0.0310873 0.990283
0.0306584 0.00324944 0.978644
-0.0274053 -0.0202078 0.985265
-0.008322 -0.0224531 0.972197
-0.0103226 0.035224 1.0017
0.0079639 0.0274614 1.02361
0.0151125 -0.0341411 0.997427
-0.00721754 0.0337707 0.987705
0.0210513 -0.0301344 1.00224
0.0174464 0.0324179 1.00614
0.00676109 0.0354884 0.994158
0.00349494 -0.0363668 0.995352
0.0280213 0.00391938 0.976259
0.0142587 0.00300612 1.03419
0.0126435 -0.0188406 0.971418
0.011845 0.0191115 1.02907
0.0157204 -0.0257805 1.02063
0.0165492 -0.00958003 0.969781
-0.0294621 -0.0182865 1.01165
-0.0197472 -0.0244085 1.01954
-0.020852 -0.0127859 1.02699
0.0327359 0.015842 1.00798
-0.0106975 -0.0126346 0.968093
0.00594774 0.0259705 1.02549
-0.0111739 -0.0176652 1.02926
0.0240488 -0.0144635 0.975079
0.0117029 0.0139317 1.03184
-0.0184746 -0.0303159 1.00899
-0.0148129 0.0261788 1.0207
0.00130435 0.0071204 1.03574
-0.0211224 0.00974194 0.971968
0.00785482 0.0261232 0.974877
0.00514573 0.0366803 1.00014
0.0310624 0.00198415 1.01976
0.0149893 -0.023277 1.02365
0.0244852 0.0166897 1.02072
0.0181503 -0.0304085 0.989101
-0.0250532 0.0165103 0.980411
0.0213239 -0.00335637 0.970334
-0.027926 0.0048912 1.02425
-0.0163441 0.0179487 0.972185
-0.0253461 0.00908265 0.976755
-0.0182266 0.010789 0.968927
-0.0059597 0.00304152 0.963419
0.00411898 0.009221 1.03493
-0.0235132 -0.00333246 0.970273
0.0251035 -0.0173807 0.979184
-0.0255651 0.00887795 0.976934
-0.000927377 0.0332883 1.01569
0.0108428 0.0346779 0.999084
-0.0102739 0.0328913 0.987545
-0.0120252 -0.0331111 0.987654
0.0184861 0.0311087 0.992623
-0.0060413 0.0324486 1.01617
0.00226215 -0.0282713 0.975502
-0.0252455 -0.0145788 1.02265
-0.0182003 -0.0137524 0.972547
0.0140411 -0.0337728 1.0031
-0.0192089 0.0226478 0.977448
-0.00636607 -0.0183246 0.968716
0.0154887 -0.0214191 0.974945
-0.0233912 -0.0283077 1.00454
0.0105962 0.0122133 1.03304
0.0262505 0.0143218 1.02081
0.0113562 -0.0310693 0.983607
-0.0288776 0.0197316 1.00817
0.0309249 0.00193268 1.02013
-0.0269046 0.00821877 1.02413
0.0145945 0.0334141 1.00435
-0.0150317 0.0271853 0.979754
-0.0176626 -0.0319246 0.995361
-0.0221214 0.0235361 0.980571
-0.00883318 -0.0214512 1.02799
0.00399765 -0.0362844 0.995495
-0.000788245 -0.0192979 1.0311
-0.0249596 0.0243714 0.987201
0.0192607 -0.0231454 1.02091
0.0273777 -0.015673 0.981838
0.0155661 0.0299789 1.01509
0.00841883 0.0274558 0.976653
0.0286514 0.0210194 0.991684
0.0213524 -0.0293681 1.00606
0.0153865 -0.0302666 1.01521
-0.013121 -0.024948 1.02395
0.00335382 -0.0220826 1.03036
-0.0187536 0.0125151 1.0301
0.0279032 0.00125051 0.974876
-0.0276236 -0.0229997 1.00755
0.0156786 0.006721 0.966669
-0.00850071 0.0334672 1.00999
-0.0211127 -0.0205007 1.02431
-0.00501346 0.0276177 0.975797
-0.0145144 -0.0256519 0.97846
-0.00542184 0.0318587 1.01899
-0.0359553 -0.00160402 0.990643
0.00746271 0.0358414 1.00307
0.0156458 -0.0314743 1.01059
-0.0193472 0.0282379 0.985593
-0.00457965 -0.0319157 0.981456
0.0271314 0.0204339 1.01532
0.0356313 0.00768762 0.993925
-0.00382632 0.013683 0.965443
-0.000953037 0.0234778 1.02787
-0.0165628 0.0135061 1.03113
0.0145989 0.00971942 0.967454
-0.0240219 0.0148255 0.978189
0.0363639 0.00598337 0.995864
0.020948 0.0312251 1.00286
-0.0295403 -0.0195184 0.990808
-0.0357323 0.00156546 1.00722
0.00884853 -0.0253385 1.02483
-0.0336707 -0.00940817 1.01415
-0.0148408 -0.023233 1.02502
-0.0109352 0.01349 0.967081
-0.00950313 0.0178952 1.03073
-0.00286028 -0.0258981 0.97354
-0.0271051 -0.000205541 0.975092
-0.0260015 -0.00612374 0.973422
-0.0197735 -0.0280188 1.01173
0.0135747 -0.0275491 1.01966
0.00152324 -0.0163647 1.03311
0.0364262 -0.00147863 1.00531
-0.0013053 0.035899 0.991756
-0.0284827 0.0188817 1.01204
-0.00542832 0.00961005 0.964769
0.0294632 -0.0175332 1.01112
0.0205472 0.0164824 0.975005
-0.00537792 -0.00687493 0.963437
-0.0320438 0.00968798 1.01574
-0.00393823 0.00909741 1.035
0.0310674 0.00863887 1.01698
-0.0302669 0.0218379 0.995352
-0.0150438 -0.00162447 1.0334
-0.0223736 -0.0232322 1.0173
-0.0332146 0.0124893 1.01225
0.0308014 -0.0136085 1.01465
0.00164496 -0.037738 1.00081
0.00697098 -0.0331013 1.01188
0.0309041 -0.00655487 1.01862
0.0366399 0.00453908 1.0012
0.0218293 -0.0285354 1.009
0.00279814 -0.0218749 0.969241
0.0290221 -0.00864003 0.979602
-0.0359975 0.00183972 1.00468
0.0295877 0.00634345 0.979047
0.021728 0.0280106 0.98951
0.0235844 -0.021356 1.01897
0.0210559 0.0257705 1.01451
-0.000960894 -0.0368787 0.995326
0.0344825 0.00647777 1.00931
-0.0182547 -0.0327903 0.999421
-0.033955 -0.000298809 0.985048
0.0305749 -0.0186884 1.0041
-0.00567079 0.0330986 0.983311
-0.00346893 -0.00270045 1.03763
-0.0162586 -0.0161199 1.02867
0.00821864 -0.0229669 1.02826
-0.0204772 -0.0133577 1.02704
-0.0233949 0.0134601 1.02537
-0.0346326 -0.0141912 1.00403
-0.0138997 0.0289336 1.01816
-0.00585508 0.0367513 0.998895
0.011196 0.00543879 0.965628
-0.02084 0.0207929 0.977454
-0.0297727 -0.0133337 1.01874
-0.0355025 -0.00695 1.00643
-0.0347874 -0.00463658 0.987629
0.0323735 -0.0198371 0.994608
-0.0301511 -0.00281631 1.02102
0.0130016 0.0322143 0.986259
-0.0293234 0.01475 0.984822
-0.0254311 0.0163419 0.980794
0.01041 0.0326788 1.01514
-0.00722947 -0.0335847 0.985329
0.0263946 0.00506244 1.02681
0.0188132 -0.00559684 1.03131
0.0124951 -0.0142832 1.03131
-0.0107045 -0.00339461 1.03537
-0.0193432 -0.0196184 0.976437
0.00247955 0.0162744 1.03329
-0.0274713 0.0239323 0.993542
-0.0190689 -0.011455 1.02837
-0.013448 0.014189 0.967893
0.0307121 0.0167435 1.01334
-0.00663983 0.0308866 1.02016
0.0154949 -0.019375 0.973233
-0.0290064 0.0176925 1.01336
0.0358506 0.00031915 0.990004
0.00441707 -0.0217117 1.03094
0.0323262 0.00773926 1.01433
-0.00805749 0.0239071 0.973458
0.00657649 0.00190657 0.964279
0.0201448 -0.0299824 1.01083
0.0314588 0.000977767 1.01913
0.0265143 0.0166186 1.01894
0.0238235 -0.0148941 1.02486
0.0273707 -0.02098 1.00983
0.0180292 0.0269622 1.01724
0.0371985 0.000138264 0.993639
-0.0175758 -0.0167079 1.02775
0.00936856 -0.00216903 1.03569
0.00329494 -0.000483775 0.963345
0.00114773 -0.0196465 0.96721
-0.000455677 0.0263911 0.974471
-0.00767083 0.0229422 0.972334
0.0204293 0.0095708 0.971419
-0.0141111 -0.00518586 0.966547
0.0341886 0.0134141 0.995027
0.0104988 -0.0210671 0.972256
-0.00571025 -0.0203232 1.02936
0.0170349 0.0302921 0.98782
0.0324364 -0.00231128 1.01789
0.01074 -0.00942523 1.03387
-0.0182985 -0.0172213 1.0272
-0.00514554 0.0239153 1.02673
0.0259148 -0.024152 0.989684
-0.0300346 -0.0153926 1.01527
0.0198514 -0.0309024 1.00569
-0.00928643 0.0222718 0.972377
0.00200535 -0.0235348 0.970252
-0.0162034 0.00439937 0.967494
-0.0295344 0.00433398 0.979841
0.0362565 -0.00642526 1.00211
0.00373693 0.0317281 0.981229
-0.0233552 0.0115208 0.975538
0.0271796 0.017901 1.01743
0.0269253 0.00308613 1.02676
-0.0156498 -0.0342534 1.00244
-0.0363735 0.00468807 0.997274
0.0228842 0.0252621 1.01239
-0.0240729 0.00202747 1.02867
0.0298237 0.0017883 0.977033
-0.00968923 -0.035741 1.0019
-0.0285751 0.0035495 1.02322
-0.0244641 -0.00854756 1.02582
-0.0152379 0.000312831 0.966746
-0.00650823 0.00189031 1.03724
0.0171408 0.00375246 0.966037
0.011566 -0.0243103 1.02489
0.0190783 0.0172883 1.02493
-0.0193776 -0.0325655 1.00268
-0.00306455 0.0375833 0.999584
0.0094937 -0.0344635 0.993542
-0.00653377 -0.0348583 1.00824
0.00511724 -0.0235914 1.0289
-0.00277984 0.0329788 0.982195
-0.00609309 -0.000471287 0.962658
-0.0237998 0.0202048 1.01928
0.0159104 0.031009 0.987894
0.00199476 -0.0042647 1.03641
-0.00951527 -0.00498352 1.0356
0.0187038 -0.0277066 0.981674
0.00173431 -0.0246342 0.971044
0.0251544 -0.0237254 1.01079
-0.00811178 -0.020201 0.970705
0.00637853 -0.0259684 0.97439
-0.0311656 0.00651221 1.01787
0.0231216 -0.00767772 1.02723
0.00503859 0.0359202 1.00722
0.0141018 0.0283977 0.980724
-0.0162755 -0.0305206 1.01071
-0.0310645 -0.00357399 1.01937
0.0189812 0.030944 0.993015
0.00573709 -0.0336671 1.01088
0.0029909 -0.0307497 0.978475
0.0227607 0.0169447 0.977226
0.0344552 -0.00545841 0.989664
0.0282689 0.0186411 1.01593
-0.0175455 0.0322694 0.994421
-0.0118946 0.0295923 1.01858
-0.0342977 0.0144972 0.99778
0.025721 -0.00180251 1.02654
-0.017422 -0.0338916 1.00215
-0.0106195 -0.0176716 1.0294
0.0149087 -0.0316199 0.989144
-0.012753 -0.0282789 1.01871
-0.004768 0.017455 1.03189
0.00425436 0.0319817 1.01798
-0.0159816 -0.00235936 0.966888
0.0184017 0.0166963 1.02578
0.0220339 -0.00800492 0.971868
0.0205892 0.0153889 1.02498
0.00731557 0.0284547 1.02263
0.0268755 -0.014459 0.980064
-0.00994414 0.033801 0.990586
-0.00706701 -0.0130833 1.03252
-0.0363948 -0.00237563 0.99539
0.0192728 -0.027894 1.01612
-0.027267 -0.0239054 0.994777
0.0293074 0.013093 0.98238
0.0258452 0.0266428 1.00307
-0.0310503 0.00998638 0.984385
0.0354173 0.00799252 1.00634
-0.0162873 -0.0240083 0.977607
0.00563137 -0.0190203 0.968676
0.0248672 0.0209385 1.01737
-0.029911 -0.0211913 0.996615
-0.0157009 -0.0289782 1.01441
-0.0160384 -0.0342451 1.00194
0.00531918 0.0200547 1.0318
-0.0358431 0.00861116 0.994689
0.0132908 0.0328543 0.990223
-0.0192552 0.0317393 0.996248
-0.0207013 -0.000902565 0.969163
-0.000219939 0.0347211 0.988063
0.0203513 -0.00617462 1.02989
-0.0148299 0.027878 1.0188
-0.0297291 0.00505767 1.02081
-0.0132531 -0.0347776 1.00033
-0.0308821 0.0212315 0.995322
0.0177511 0.0317782 0.993924
0.0275898 -0.013826 0.980863
-0.0124512 -0.0168631 1.02933
-0.0220032 0.0223188 0.979755
0.0229508 0.0302975 1.00132
0.0327102 0.0157234 0.995243
-0.00456796 -0.00607838 1.03655
0.0077099 -0.0152554 1.03307
0.0317649 0.0182366 1.00086
0.0285177 -0.00933875 0.979222
0.0235184 -0.0061799 1.02728
-0.0166856 0.013375 0.968657
0.0157086 -0.0211004 1.02536
0.0199173 -0.0299924 1.01259
-0.0112913 0.0322437 0.986984
0.00225975 -0.014607 0.966276
0.0318099 -0.0128315 1.01356
-0.0362791 0.00227941 0.998791
-0.035224 -0.00748467 0.993168
-0.0137156 -0.0187597 1.02809
0.0159692 0.028921 0.982491
-0.0135659 0.00544062 0.966361
0.0138216 0.033623 1.00692
0.0141466 0.014343 0.96948
0.0073282 -0.0107082 0.966717
-0.0226792 0.0273836 0.991064
0.0233205 0.00345669 1.02905
-0.0293473 -0.0226906 1.00463
0.0353794 0.0124879 1.00014
-0.00876426 -0.0352685 0.995272
0.0198085 0.0147299 1.02594
-0.0302885 -0.02 0.994705
0.0092703 -0.0314437 0.98243
0.0306373 0.00434373 1.01995
-0.0360881 -0.00522316 1.00132
-0.0359528 0.00778542 0.991666
-0.0360449 -0.00519589 0.995537
-0.00609056 0.00471361 0.963832
-0.00276256 -0.0373424 1.00178
-0.0114143 0.00100462 0.965043
-0.0169154 0.000699272 0.967545
0.0254017 -0.0225946 1.01281
0.0267127 0.0150406 1.01988
-0.019138 0.022704 1.0217
0.00791613 0.0169689 0.968479
-0.0213437 0.0268922 0.985025
0.0153501 -0.0160283 0.971344
-0.00222747 -0.0332275 0.98422
-0.0145094 0.028969 0.98188
-0.00493179 -0.0371107 1.00045
-0.0238486 0.0265818 1.00818
0.0204281 -8.27333e-05 0.968941
-0.00839479 -0.0156061 1.03096
0.033111 0.00480328 1.01345
0.0198309 -0.0307408 1.00717
-0.0315865 0.0105655 0.985377
0.0262071 0.0200029 0.982434
0.0267982 0.0119359 1.022
0.00423882 -0.0330062 0.983518
-0.0188938 -0.00129302 1.0313
-0.0193592 -0.0138969 0.973253
0.0123273 -0.0230234 0.974774
0.00843909 -0.0361077 1.00021
-0.0252467 0.0238492 0.986189
0.00535334 -0.00898431 1.03483
-0.0126522 -0.0335048 0.990724
0.0115227 0.0205542 1.02843
-0.0142373 0.0322683 1.00906
-0.0322696 -0.000281523 0.982195
3.79e-05 -0.0234902 0.96993
-0.0313631 -0.0196267 1.0041
0.0171032 -0.0193138 1.02622
0.00122443 -0.0217371 1.03015
0.0219883 -0.0221363 0.97966
-0.00193638 -0.035315 1.01056
0.0298733 -0.00528136 0.97865
0.0313262 -0.00622709 0.981905
0.00526464 0.0365959 1.00236
0.0196492 -0.0305771 0.993418
0.0227612 -0.0218169 0.980543
0.0039831 -0.0365255 0.996403
0.0345527 0.00780524 0.989127
-0.00442651 0.0237359 0.971726
0.020337 0.013996 1.026
-0.0219137 -0.0155247 1.02552
0.0167276 0.00732369 0.967336
-0.0228355 -0.0294703 1.00105
-0.0184757 -0.00340393 1.03095
0.0125947 0.0244956 1.0253
0.0314657 -0.0161631 1.00738
0.0206821 0.0167023 1.02412
0.0345855 -0.0103329 1.01109
-0.0258186 -0.0268325 1.0006
0.00656779 -0.000645276 1.03621
0.0354342 -0.0095661 1.00106
-0.0217124 0.0130434 0.974304
0.0359492 0.0114764 1.00355
-0.0233586 0.0189407 0.979609
0.00368993 0.0331732 1.01569
-0.0150956 0.0124131 1.03204
0.00858943 -0.0331388 1.01032
-0.0111755 -0.0167949 1.02968
0.0170615 -0.0180935 0.97291
0.0097241 0.0350165 1.00624
-0.0314221 0.0153787 1.0107
-0.0145814 -0.0151283 1.02963
0.0225828 -0.0264055 0.987551
0.0194505 0.00753301 0.969483
-0.00735221 0.0333049 0.985878
-0.0190892 0.0207099 0.975818
0.0126149 -0.0197897 1.02875
-0.0124906 -0.0323096 0.98598
0.0364964 -0.00479848 0.996677
-0.0246745 -0.0249358 1.00945
-0.00716702 0.00496118 0.964168
0.0293139 -0.00592493 0.978133
0.0216712 -0.0291833 1.00499
0.0365399 0.00547045 1.00157
-0.0337744 -0.00861198 1.01386
0.034259 -0.00663692 0.989894
-0.00928532 0.00660875 1.03517
-0.00205707 -0.000927573 0.962559
-0.000209707 0.0327258 1.01734
-0.0309723 -0.0115812 1.01827
0.0241018 0.0286837 0.99651
0.00666474 -0.0295845 0.97756
0.00411464 0.0369625 1.00339
-0.0229057 0.0288806 0.997452
-0.0307164 -0.0166066 0.98702
-0.00547067 -0.0307702 0.980193
0.0141659 0.0234549 1.02479
0.0194209 -0.0191053 1.02487
-0.000892317 -0.0197564 0.966728
0.0186107 -0.0307347 1.01087
0.0253892 0.0272396 1.00329
-0.0340958 -0.00283721 1.01347
0.0238378 -0.0105814 0.973833
-0.0212208 0.0292899 0.99346
-0.0315257 -0.0195193 1.00074
-0.0150173 -0.0325539 1.00779
0.00453036 0.032584 1.01688
0.0235447 0.0183206 0.978655
-0.030745 -0.0143491 0.984638
0.00512523 0.0190485 1.03257
-0.0160359 -0.00569579 1.0317
0.00316865 -0.0103128 0.965511
-0.0108342 0.0107636 1.03347
0.00296864 0.0022373 0.963883
0.0118657 0.0204107 1.02827
0.0304986 0.00250684 0.978049
-0.0281637 -0.0245119 1.00399
-0.0138899 0.0133594 0.96782
-0.0116229 -0.00708451 1.03382
0.0211293 -0.018389 1.02444
-0.0046684 0.00911103 1.0349
0.00270079 0.0295919 1.02203
0.0190157 -0.0105236 0.970988
-0.00478446 0.0290515 0.977168
0.0197815 -0.0308568 1.00663
0.00174158 -0.0165165 1.03309
0.0313584 0.0160743 0.987786
-0.0219516 -0.0272714 0.989468
0.0127765 0.0146303 0.968728
-0.0022666 0.0283381 0.976454
-0.00158735 -0.0313892 1.02114
0.033425 -0.00307889 1.01566
-0.0338105 -0.0107844 0.988317
-0.0180381 0.0325243 0.995694
-0.00597515 -0.0164874 1.03115
0.0261054 -0.0152358 0.979273
0.0333666 -0.00379646 0.98552
-0.0269876 -0.00227981 0.974109
0.0246249 0.0287424 1.00134
0.00341287 0.024397 0.972454
-0.010946 0.0354997 1.00007
0.0297086 0.00774123 0.979951
-0.0191377 0.0135396 1.02943
0.0223828 0.0175943 0.97716
0.0348514 -0.0115793 0.998591
0.0298965 -0.0221329 0.995943
0.0167999 0.0241404 0.977181
-0.0295496 -0.0198004 0.991603
0.0215144 0.0306479 0.996558
0.0307957 0.0183637 0.993672
0.0140667 -0.034635 0.998362
0.0234493 0.0204826 1.01897
-0.0108013 0.0331991 1.00873
0.00536506 0.0109619 0.966051
0.0218726 0.024821 1.01511
0.0290081 0.00601025 1.02333
-0.0115888 -0.0145656 1.03066
-0.0254276 0.0244542 0.988988
-0.0145961 0.0068026 0.966935
0.0255381 0.0265259 1.00492
0.0340104 0.00730472 0.987468
-0.0355178 -0.0129202 1.00281
-0.0189953 0.0257599 0.980078
0.0352461 -0.0106001 1.00337
-0.0162581 -0.032506 0.994379
0.0228753 0.0170996 1.02188
0.0268718 -0.0192323 1.01477
0.026469 0.0207446 1.01581
0.00424513 -0.00311899 1.0363
0.0155397 -0.00354453 1.03408
0.0142769 -0.00783431 1.033
-0.00534555 0.00657222 0.964059
-0.012858 0.0150163 0.968035
-0.0121618 0.00129879 1.03503
0.033641 0.00991834 0.987391
0.00508167 0.0337141 0.98533
-0.0118173 0.0101733 0.966559
-0.0314271 -0.0191319 0.998308
-0.0223938 -0.0197643 1.02325
0.0179839 0.0231432 0.976962
-0.0185628 0.0287029 0.985932
-0.0243714 -0.028385 1.00259
-0.0277488 -0.00436167 0.975662
-0.0134871 0.0311624 0.986634
-0.00377268 -0.00962383 0.963858
-0.0320367 0.0166142 1.00493
-0.0110146 0.0298449 0.980627
-0.0149995 0.000728709 0.966668
0.0279407 0.0178742 0.983347
-0.0120635 0.0316602 0.986309
-0.00412521 -0.0243616 0.972167
0.0234338 -0.0265908 1.00965
-0.0138859 0.0222689 0.974429
-0.0343501 -0.0115103 1.01064
0.0267269 0.0253278 1.00339
0.00436442 -0.0239841 1.02874
0.0167357 -0.0290982 0.983651
0.0156445 0.000167326 0.966412
-0.0305735 0.00297277 1.01948
0.0310493 -0.000893356 0.977519
-0.0363076 0.00755298 0.999253
0.0279021 -0.0238982 0.994815
0.00257053 0.0261181 1.02579
-0.0252555 -0.0120429 0.976168
-0.00700676 -0.0319509 0.981986
0.00921737 -0.0262069 1.0235
-0.0343667 -0.0143418 1.00013
0.00714353 -0.0338262 1.00908
0.0267112 0.0103887 1.02318
-0.00759241 -0.0357884 0.996564
-0.000995265 -0.00635068 1.03643
0.000319944 -0.035105 0.989923
-0.0236846 0.00140723 1.02896
-0.000918932 -0.0301567 1.02237
0.00576372 -0.0272912 0.975205
0.0175744 -0.000511239 1.03358
-0.0030602 0.00943836 0.964638
-0.0225923 0.00427005 0.971507
-0.033927 0.0158676 0.998236
-0.00312261 -0.0352624 0.990417
0.0348725 0.00928551 0.991644
0.0102312 0.0348088 1.00809
0.00383468 0.0364315 1.00575
0.00622505 -0.0239615 0.972634
0.0125427 -0.00604518 0.967197
-0.0101372 -0.0123692 0.967742
0.0223638 0.0202175 0.978385
0.00219411 0.00352984 0.964058
0.0188767 -0.0166901 0.972856
0.0190035 -0.0307568 1.01044
0.0235182 -0.000835129 1.0286
-0.0027572 -0.0165488 0.966234
-0.0197577 -0.0292993 1.00901
0.0240715 -0.0265624 1.00696
0.00588454 -0.0361408 0.996665
-0.0267459 -0.0207826 0.984531
-0.00907997 -0.0331655 0.984061
-0.0225159 -0.00262074 0.969868
0.0192606 -0.0292146 0.987415
-0.023986 0.0246183 1.01313
-0.0170756 -0.0213433 0.976176
-0.0338133 -0.0136287 0.9928
0.00151872 -0.00682109 0.964253
-0.0144079 0.0134818 0.967982
0.00223518 -0.0365675 1.00424
-0.0145559 -0.0240828 0.976858
-0.0276919 0.0103329 0.980347
-0.0349276 -0.0137306 1.00179
0.0102353 -0.0351231 1.00193
0.0327472 -0.0147746 0.991042
0.0271501 0.0252854 1.00069
0.0358165 -0.00157307 0.990904
0.0061356 -0.00119666 0.964162
0.032949 0.0142315 0.989294
0.00638056 0.0348034 1.01052
0.00846529 0.0085675 1.03434
0.00162405 -0.0263143 0.973167
0.03034 -0.0158725 0.987212
0.00596803 0.0221464 1.02961
0.0100902 -0.00622124 0.966393
0.0363143 -0.00658664 1.00527
-0.00313283 0.022401 1.02832
-0.03229 0.0154482 1.00729
0.0124444 -0.0341711 0.995112
0.0318595 0.00394519 1.01698
0.0288978 -0.0183272 1.01112
0.0265882 0.0254346 1.0038
0.00115999 -0.00729041 1.03588
0.00667955 -0.00639908 0.965527
0.010517 -0.0205197 0.971806
-0.00662686 0.00954337 1.03448
0.0243213 -0.00928688 1.02584
0.00316732 0.0369903 1.0041
0.0268648 -0.0100869 1.02297
-0.0363261 0.00638146 0.991041
-0.00573908 -0.0296122 0.97879
0.0305673 -0.00295121 0.978172
-0.0287995 -0.000859501 1.02337
0.0242001 0.00465241 0.972821
-0.00815262 -0.03608 1.00194
-0.0315125 0.0164735 1.00726
-0.025209 -0.00336707 0.97154
-0.0261455 -0.0233557 0.989401
-0.0260655 -0.00929165 0.975485
-0.032825 -0.0171039 1.00026
0.00765719 0.0289576 1.02204
0.00300581 -0.0350204 0.989762
-0.0349373 -0.00906753 0.993287
0.00635366 0.029809 1.02113
0.00744687 -0.032251 1.01476
-0.00795254 0.000553548 1.03734
0.00382919 -0.0337783 0.98587
-0.01471 -0.0061941 0.967217
0.0148786 0.0152512 1.02919
0.0289126 0.0204159 1.01181
0.0144216 0.0305595 0.984058
-0.0143355 -0.0191168 1.02776
0.0129159 -0.022069 0.974256
-0.0253796 0.00954329 0.977003
-0.00333695 0.0256925 0.973737
0.0234297 0.00256837 1.0293
0.0134086 0.0336866 1.0107
0.00754547 -0.00889345 0.966343
-0.02934 0.00178152 0.978572
0.0212861 0.0290432 0.991651
0.0278425 0.0045174 1.0262
-0.00259724 -0.00954622 1.03537
0.0150629 0.00865193 1.03181
-0.0323953 -0.0174068 0.998271
-0.0193027 0.0132839 1.02938
0.0324183 -0.00718157 1.01633
0.011983 -0.00298862 1.03509
-0.0238441 -0.0273857 0.996212
-0.0361206 0.00421107 1.00255
0.0199136 0.0207902 1.02194
0.0194489 0.0272726 0.983499
0.00781272 -0.00131537 1.03612
0.00170727 -0.0234266 0.970019
-0.00635743 0.0169115 0.966666
0.0319628 0.00752903 1.01534
0.0262519 -0.00262373 1.0259
-0.00408178 0.00845707 1.03521
0.015341 0.0108927 0.968375
-0.00656935 0.03602 1.00243
-0.0111692 -0.0308671 0.982254
0.0342486 -0.0136698 0.996107
-0.00708862 -0.0262951 1.02423
0.0305214 0.00389312 0.97883
-0.0336444 -0.0161831 1.00256
0.0314991 -0.0137 0.98767
0.010948 -0.0129514 0.968756
0.00108714 0.0348047 0.988459
-0.00418779 -0.0247475 0.972596
-0.0310761 0.0108576 1.0174
0.0274892 0.0132653 0.980303
0.0178989 -0.00142872 1.0331
0.0132984 0.0324372 1.01379
-0.00800746 -0.0361024 1.00198
0.0142266 0.0316477 1.01386
0.00461339 0.0144784 1.03396
0.00259004 0.0254695 0.973547
-0.0168367 -0.024721 1.02199
-0.0221682 -0.00101863 1.02952
0.00418641 0.03643 0.994852
-0.0184876 0.0122775 0.969843
0.0268358 0.0181484 1.01757
-0.0351465 0.0119215 1.0006
0.00896037 -0.0226807 1.02828
-0.0259647 0.00486559 0.975784
0.0237864 0.00818261 1.02699
0.00464395 0.00287985 0.964236
-0.000174671 0.0107253 1.03493
0.0210199 -0.0249736 0.981389
-0.00739452 -0.00409703 1.03679
-0.0358664 -0.00508391 1.00519
0.0270778 0.00283228 0.974808
0.0124756 -0.0337074 0.993368
-0.00984584 -0.0355893 0.999417
-0.0266768 0.0118907 1.02285
-0.025301 -0.000897203 0.972652
0.0214537 0.0111931 1.02687
-0.0218055 -0.00939813 1.02739
-0.0247801 -0.0239672 1.01134
0.0307691 -0.0186484 0.989997
0.0283176 -0.00729706 1.02192
0.0259514 -0.0239534 1.00731
0.0111953 -0.0278714 0.978269
0.00503251 0.0232108 1.02859
-0.027341 -0.0208302 0.986724
-0.0286589 -0.00298035 0.976826
0.0079018 -0.0363045 0.999127
-0.012189 0.0233331 0.974698
-0.0108119 -0.0298116 1.01747
0.0210055 -0.00927908 0.971338
0.0209717 0.0271603 1.01166
0.018016 0.0322779 1.00355
0.00999459 0.023695 1.02739
-0.0144682 -0.0265411 0.979357
-0.00707685 -0.0118332 0.966193
0.0245268 0.0119184 1.02406
0.0240573 -0.0119906 0.974302
-0.00583502 -0.0173806 0.96791
0.0365434 0.00438859 1.00199
0.00947483 0.0107375 1.03381
-0.0149111 0.0312161 0.988457
-0.0123723 0.0315616 0.986405
0.0225942 0.0139129 1.02439
0.0264884 -0.0240879 1.00501
0.00412902 -0.0316919 0.979519
0.0354258 0.00620216 1.007
-0.0247221 0.0209332 1.01759
0.00152059 -0.0246488 0.971092
-0.00977417 0.0242296 1.0256
0.0222127 -0.0220648 1.02001
0.0351649 0.00402488 0.989452
-0.00133784 -0.0358274 0.992128
0.0158527 -0.0294546 0.983742
-0.0173442 -0.0249286 1.02107
-0.00417499 -0.0355637 0.991338
-0.0069747 -0.0354191 1.00562
0.00436337 0.0352734 1.00924
0.0115243 -0.0221365 0.973645
0.0258449 0.00509984 0.974663
-0.00267911 0.0340663 0.985712
0.0091197 -0.0251979 1.02488
-0.0312997 -0.00353403 0.981438
-0.0124462 -0.0343275 1.00503
0.0146584 0.0116922 0.968356
0.0298485 -0.0149049 0.985638
0.00249873 -0.0360167 0.993108
0.00241713 0.00583013 1.03578
0.00438351 -0.00537812 0.964677
-0.00373396 0.0337832 0.984696
0.00289997 -0.0100153 1.03499
0.00449111 -0.0354246 1.00607
0.0086655 -0.0349671 0.994712
-0.032979 0.018293 0.996697
0.0141496 -0.032634 0.991327
-0.00610405 0.0304653 0.979092
0.0231135 -0.00386599 1.02818
