ply
format ascii 1.0
comment Created by Open3D
element vertex 1813
property double x
property double y
property double z
end_header
-0.00417427 0.0161548 0.975
-0.0149282 0.00493859 0.975
0.0138781 0.00953378 1.025
-0.025 0.0117354 1.0069
0.025 -0.012001 0.97908
0.025 -0.0159852 1.01464
-0.0182411 0.025 0.985621
0.0243567 0.025 0.991084
-0.00840099 -0.00585529 0.975
0.000339925 -0.025 1.00347
0.025 -0.00199377 0.986545
0.0146119 0.025 1.01983
0.0145749 -0.0249803 1.025
-0.025 0.0226609 0.981751
-0.00474111 0.025 0.976772
0.0136619 0.00799843 0.975
-0.0131068 -0.025 1.00573
-0.00645877 -0.00360805 0.975
-0.000471323 -0.025 1.02091
-0.023236 -0.0126647 1.025
0.0243439 0.025 0.984527
0.00502045 -0.025 0.997464
0.0143192 -0.025 1.02419
-0.00490654 0.025 0.992691
-0.025 0.0184972 1.01332
-0.025 -0.00121701 1.00667
-0.0159213 -0.0183411 0.975
-0.025 0.0031068 1.01908
-0.00237658 0.00809618 0.975
0.0248717 0.0114473 0.975
-0.025 0.0192611 0.983639
-0.025 -0.0245487 1.00254
0.025 -0.0192679 0.981886
0.025 -0.0112268 0.997904
0.00775791 0.00614662 0.975
0.0243792 0.025 0.980167
0.0166586 0.025 1.01469
0.025 -0.0183401 0.978418
0.025 0.0242215 1.00863
-0.025 0.00663792 0.987033
0.0141861 -0.0205949 0.975
0.00485912 0.00903823 0.975
0.00128918 -0.025 1.00033
0.025 -0.0173161 0.985849
0.0218484 -0.025 0.981229
0.025 0.0169564 1.02474
-0.00813895 -0.00334113 1.025
0.00021202 0.024146 1.025
-0.025 0.0237516 0.982966
0.0223651 -0.00102134 0.975
-0.025 0.00500097 1.00802
-0.000731122 0.025 1.02406
-0.0177464 -0.00753949 1.025
0.025 0.0146724 1.02499
0.025 7.60543e-05 0.99633
-0.00811645 0.0105867 0.975
0.0164809 -0.025 0.990477
0.025 0.019972 1.01182
0.00185038 0.0233617 0.975
0.0228917 0.00664601 1.025
0.025 -0.00481749 0.999413
-0.00117039 0.0147011 1.025
-0.0108833 -0.025 0.990913
0.0191247 -0.00564432 0.975
0.0184463 -0.025 1.01439
-0.025 0.0248744 0.978894
-0.0112072 -0.00726493 1.025
0.025 -0.0137102 1.01567
-0.0145826 -0.00469012 0.975
-0.00676786 -0.00753728 0.975
-0.0193561 -0.025 0.995561
-0.025 0.00899393 0.995554
-0.025 0.00151138 1.01694
0.025 0.0154166 0.976823
-0.0104946 0.0160956 0.975
0.0154968 0.025 0.997299
0.0151061 -0.025 1.01198
-0.0151337 0.025 1.01678
0.025 -0.00660492 0.979725
-0.00347752 0.025 1.00898
0.025 -0.0230297 0.99333
-0.0162121 0.0084103 0.975
-0.0127978 0.025 1.01045
-0.025 -0.00177668 1.00848
0.0171217 0.00216422 1.025
-0.0204077 -2.17618e-05 1.025
0.025 -0.018979 0.993657
-0.025 -0.0171028 0.979403
-0.0203576 -0.025 1.00382
0.025 -0.00128368 0.977516
-0.025 -0.00720869 1.01158
-0.0118919 -0.025 1.01921
0.0180713 0.025 0.992734
-0.0221833 -0.025 1.00936
0.0235941 -0.025 1.00241
-0.025 0.00024584 1.0124
0.0175773 -0.025 0.984206
0.025 0.0161389 0.991207
0.00569997 -0.000523903 1.025
0.0211613 -0.025 1.01519
0.025 0.01493 0.991148
0.025 0.0191442 1.00216
-0.025 0.0150525 1.0143
0.0231993 -0.00670091 1.025
0.0123051 -0.0171823 1.025
-0.0221765 0.025 1.02015
0.0247786 0.025 0.985687
-0.0191554 -0.025 1.00994
0.0245868 -0.0168725 1.025
-0.020084 -0.0204048 1.025
0.025 -0.0194581 0.987433
-0.0162128 -0.00777693 1.025
-0.0177324 -0.000193713 1.025
-0.025 0.0119455 0.984439
-0.025 0.00829049 0.975275
0.0244524 -0.025 0.987027
0.0208737 -0.025 1.01903
0.00725034 -0.0192704 0.975
-0.00294387 -0.00552408 1.025
0.0103833 -0.0192823 1.025
0.025 0.00490614 1.01345
0.025 0.0159515 1.00473
-0.025 -0.019999 0.999223
-0.025 0.0198348 0.985737
-0.0182341 -0.025 1.00777
-0.0191607 -0.025 0.992904
0.00763972 -0.025 0.980706
-0.0152194 0.025 0.98022
-0.0100027 0.025 0.977292
0.025 -0.0177249 1.01093
-0.0181709 0.025 0.980097
0.025 -0.00550985 0.97827
0.0123578 0.0148537 1.025
0.00891148 0.0189069 1.025
0.00782447 0.025 0.994679
0.0230455 0.012607 1.025
0.00192233 0.00415702 0.975
-0.025 0.0216545 1.00069
0.00157245 0.025 1.02161
0.0165952 -0.02316 0.975
0.021838 -0.025 0.998876
-0.025 0.0155974 1.01519
0.025 0.00683434 1.02107
-0.025 0.00264498 0.996726
-0.0246715 -0.025 1.00633
0.0183574 -0.025 0.987733
-0.0162367 0.025 1.01513
-0.025 -0.00159993 0.992679
-0.0163179 -0.025 1.00117
-0.025 0.0113023 0.998264
-0.025 -0.00322491 0.98794
-0.025 0.0227698 0.992748
0.025 -0.0198516 0.998651
-0.0218211 -0.025 0.988397
-0.025 0.00306859 0.980841
-0.025 0.0145959 0.984872
-0.00765458 0.0134163 0.975
0.0116642 0.025 0.977175
0.025 0.0244362 0.984405
-0.025 0.00990902 0.979733
-0.021404 0.0194159 0.975
-0.0208013 -0.025 0.976304
-0.025 -0.0171509 1.02121
0.00555869 -0.025 0.979564
-0.025 0.00219195 1.01415
0.0110317 0.025 1.02323
0.025 0.00842392 0.988408
0.025 -0.0111441 0.997374
0.0197358 0.025 1.01598
-0.025 0.0193542 0.981563
-0.00170872 0.025 0.98166
0.025 -0.000425014 0.977969
-0.016504 0.025 1.0119
-0.025 -0.0101551 1.02371
-0.025 0.0127485 1.01563
0.0231424 -0.025 0.989983
0.025 0.00172002 1.02252
-0.025 0.0154395 1.00465
0.014526 -0.025 1.02201
-0.0180948 0.025 0.991326
0.0229262 0.00317725 0.975
-0.000984071 -0.025 0.99966
-0.0220737 -0.025 1.01511
-0.0112846 0.025 0.979804
0.0215159 -0.021564 1.025
-0.00849737 0.025 0.984621
0.025 -0.00898289 0.99002
-0.025 -0.01974 1.01981
0.00223809 0.0105472 0.975
-0.025 0.0237167 1.00589
-0.0212217 0.025 0.977699
0.0063735 0.025 0.979941
0.0129075 -0.0218189 1.025
-0.025 0.0224901 1.02299
0.0223833 -0.025 1.00063
-0.0186514 -0.00747045 1.025
-0.0115016 0.025 1.02059
0.0121322 -0.0245756 0.975
-0.025 0.0115015 1.00577
0.025 0.00921892 1.00711
0.0242156 -0.0182071 0.975
0.0243894 0.025 1.00244
0.00164548 0.0157826 1.025
-0.0106239 0.0213117 1.025
0.0140269 0.025 0.988876
0.025 -0.0210346 1.0179
-0.0210847 0.025 1.00288
-0.0083066 0.025 1.00255
-0.0230773 -0.01964 1.025
-0.013562 -0.025 1.00975
0.014621 0.000873334 1.025
-0.0122853 0.025 0.999392
0.00160735 0.016578 1.025
0.0216552 -0.025 1.01635
0.0113687 -0.0189183 0.975
0.0152592 -0.0190389 0.975
0.00138452 0.025 1.02374
-0.0221394 0.0160718 1.025
-0.0036455 0.025 0.982823
-0.0246613 -0.00445794 1.025
-0.00485196 -0.025 0.986289
-0.013342 -0.025 1.00789
0.025 0.00700432 1.01469
0.025 0.00284841 0.993113
-0.013385 0.025 1.00436
0.0185652 -0.025 1.0212
0.0199165 0.0197628 1.025
-0.025 0.0230448 1.01893
-0.0179296 -0.025 1.01762
0.00253233 0.025 0.996678
0.025 0.0227384 1.0206
-0.025 0.00882936 1.02226
0.0177565 -0.025 0.990477
-0.00929517 -0.025 0.976282
0.025 -0.0179615 0.985978
-0.0105396 -0.025 1.0072
0.0248207 -0.0244776 0.975
-0.0230676 0.0109874 0.975
0.025 -0.00826401 0.98513
-0.00365499 0.025 1.01272
-0.02219 -0.0153262 1.025
-0.00246032 0.025 1.02489
-0.0233202 -0.0205664 1.025
0.0208485 0.025 0.993986
0.0223445 -0.0208978 1.025
0.025 0.0112494 1.01388
0.025 -0.0209779 0.98853
-0.00872323 0.025 0.999148
0.0242398 -0.025 0.979129
-0.0140491 0.025 1.00011
0.025 0.0130318 0.983
0.011995 -0.000748858 0.975
-0.00796157 0.0153163 1.025
0.025 -0.00786199 1.00262
0.025 0.0101623 1.02243
0.00142536 -0.00311499 0.975
-0.0238155 0.0199301 0.975
-0.0116176 -0.00127923 1.025
0.025 0.000836279 0.99234
-0.025 -0.00121801 1.01813
-0.0187825 -0.025 0.990901
0.0191893 -0.025 0.983366
-0.0017104 0.025 0.977669
0.0191392 0.025 0.999395
0.025 0.00433093 0.980899
0.00111426 -0.025 0.989286
-0.0077547 -0.025 1.00566
0.025 -0.0227823 1.01045
0.00136938 0.0236895 1.025
-0.000326606 -0.0141245 1.025
0.025 0.0198456 1.00792
-0.025 -0.000467232 0.992242
0.025 0.00469456 0.981377
-0.025 -0.00819791 1.01859
-0.025 0.0247881 1.00942
0.0202352 0.025 0.989308
0.025 0.019761 1.01321
0.025 0.00744766 1.01987
0.025 -0.00711895 0.988035
-0.00284817 -8.88206e-05 0.975
0.00602545 -0.0216813 1.025
0.0225738 -0.025 0.98335
0.00815896 0.0100344 0.975
-0.025 -0.0241322 0.991889
-0.0190997 0.025 1.01475
0.0177459 -0.025 0.978415
0.0103729 0.025 0.977513
0.0193345 -0.00403166 1.025
-0.025 0.00796831 0.985805
0.025 0.012434 0.998617
0.00339032 0.012939 0.975
0.0152842 0.025 1.00234
0.00675815 -0.025 0.991002
-0.013558 -0.0131933 0.975
0.0188556 0.00941982 0.975
0.00115227 -0.025 1.00781
-0.00785556 -0.025 0.978415
-0.0232595 -0.00792435 1.025
0.0127418 -0.0184774 0.975
-0.0155432 -0.00530646 1.025
0.025 0.00131662 1.00644
-0.024406 0.00268596 1.025
-0.00865692 -0.00207645 1.025
-0.025 0.0151298 0.980375
-0.00922313 -0.0043872 1.025
0.000917611 -0.0199613 0.975
-0.0143901 -0.025 1.01577
-0.00193503 -0.0224626 0.975
0.0171527 -0.025 1.01881
-0.0234278 0.025 1.01127
-0.00230102 -0.025 0.990614
0.00919782 -0.0157473 0.975
0.000393659 0.025 0.979003
-0.0237585 0.0176024 1.025
-0.00667501 0.00990664 1.025
0.0191507 0.0024882 0.975
0.025 -0.00588086 0.98084
-0.00968523 0.025 0.987536
0.00734497 0.025 0.979295
0.025 -0.0187505 0.982867
0.0175146 0.00960028 1.025
0.00451998 -0.0246235 0.975
-0.00958486 0.025 1.00524
-0.00340283 0.00412935 0.975
0.0167351 -0.0139088 1.025
-0.025 0.0238254 0.986865
-0.00742613 -0.025 1.00412
-0.0199629 0.025 0.989548
0.025 -0.0232122 0.981361
0.025 -0.0142322 0.998533
-0.025 0.0136451 0.975039
-0.00466313 -0.025 1.01386
-0.00681258 0.025 0.990059
-0.0053041 -0.025 0.978931
-0.0044973 -0.025 0.991528
-0.0190356 -0.000611616 0.975
-0.0167989 -0.0226794 0.975
-0.0111072 0.0201205 0.975
0.025 -0.0165938 0.996279
-0.025 0.00870825 0.982993
-0.025 -0.0145384 0.983995
-0.025 -0.0209216 0.990424
0.0218356 -0.025 0.98227
-0.0225234 -0.025 0.975762
0.025 0.0151255 1.01253
-0.00765755 -0.00614418 1.025
-0.025 -0.00655818 0.983541
-0.0112201 -0.025 0.982071
-0.025 -0.021971 1.00715
-0.0147748 -0.0103602 1.025
-0.0143139 -0.0188054 0.975
-0.000849343 -0.0168101 0.975
0.025 0.00682043 0.982276
-0.0101777 0.025 1.02193
0.0214113 0.00684468 0.975
-0.025 0.0052491 0.991922
0.021801 -0.0246053 0.975
-0.0247571 -0.025 0.997688
0.022322 0.0114053 1.025
-0.0204132 0.025 0.991969
0.0217962 0.0199373 1.025
-0.0122127 -0.025 0.979904
-0.025 0.00333099 0.984248
-0.00914261 -0.0205489 0.975
0.025 0.0195383 0.986564
0.025 0.0163136 0.998098
-0.0182411 0.0243279 0.975
0.00311566 -0.0101178 0.975
0.0102463 -0.0191803 0.975
0.0152299 0.025 1.01567
0.0184346 -0.00362188 1.025
0.025 -0.0183777 0.997638
-0.0191369 0.025 0.976382
-0.0215261 -0.025 1.01104
-0.025 0.00718944 1.01587
-0.00407152 0.0179967 1.025
0.0130676 0.0199542 0.975
0.00251228 -0.025 1.02388
-0.00966979 -0.00277445 1.025
-0.00529598 0.025 1.00755
0.00436053 0.00200033 0.975
-0.0133798 0.025 1.01292
-0.0212584 -0.025 1.00866
-0.025 -0.0118923 1.01406
-0.00941378 -0.000454055 0.975
0.025 -0.008979 0.996342
-0.0160962 0.0158745 1.025
0.025 0.00485725 0.997449
0.0249208 0.00665641 1.025
-0.025 -0.0145401 1.01254
-0.0144352 -0.025 1.00484
0.00150136 0.00750294 0.975
-0.00337819 0.025 1.02283
0.025 -0.0028808 1.01906
0.025 -0.00681757 1.00345
-0.0099868 -0.0221539 1.025
-0.025 -0.0204577 1.02282
-0.00849952 -0.00284204 1.025
-0.025 -0.0090316 1.00866
0.0209724 -0.00307598 0.975
-0.0160757 -0.025 1.01908
-0.00024928 -0.025 0.994178
0.00570032 -0.025 0.980189
-0.0121299 0.0132785 0.975
-0.000839736 -0.025 0.994013
-0.025 -0.0103016 0.977082
0.00149404 -0.025 0.978581
0.0018614 -0.025 1.00052
-0.025 -0.0034554 0.994335
0.0180718 -0.025 1.00671
0.00668542 -0.0172656 1.025
0.025 0.0165571 0.982617
0.000926636 -0.025 1.00796
-0.0135299 -0.00341663 1.025
-0.025 -0.0155667 1.00318
0.00892875 -0.025 1.00984
-0.0123375 -0.025 0.99383
-0.0206055 -0.025 0.987329
0.025 -0.00145643 0.977794
0.00264206 0.0161768 1.025
-0.00880504 0.025 0.977371
0.025 0.00376549 0.984989
0.025 0.0159547 1.00992
-0.00366767 0.025 0.991466
-0.0210043 0.025 1.01588
-0.000532679 0.025 0.981641
0.025 0.0126183 0.986343
-0.0216004 0.000696122 0.975
0.0221938 -0.025 1.01379
0.00479211 -0.012553 1.025
-0.0150935 -0.025 0.97732
0.025 0.0104782 0.998109
0.025 -0.00644325 0.994233
0.025 0.0165416 1.01901
0.025 -0.0245988 1.01916
-0.0191855 -0.025 1.02361
-0.0219981 0.00693205 1.025
0.0101662 0.025 1.00257
-0.0192386 0.0146497 0.975
0.025 -0.0185276 0.983432
-0.0194396 0.025 1.01304
-0.025 0.0203479 0.987581
0.00616616 -0.00860856 0.975
-0.025 -0.00101603 1.00383
0.025 -0.0120079 0.989065
0.0248817 0.025 1.01805
0.0238518 -0.025 1.0234
-0.0197324 0.025 0.982591
-0.0224821 -0.00628312 0.975
0.025 0.011443 1.02263
-0.000844977 -0.025 1.0173
-0.0164205 0.025 0.990843
0.00499439 -0.0179179 0.975
0.025 -0.00647171 1.023
0.0154648 0.025 0.98959
0.0056294 -0.00122697 0.975
-0.025 0.00702384 0.982121
0.018625 0.025 1.01209
0.00890545 -0.025 1.01514
0.025 0.000390008 1.0147
-0.025 0.00539377 0.980122
-0.0191273 -0.025 0.983369
0.00829022 0.025 0.979831
0.00964463 -0.00249114 1.025
0.0143884 0.0124157 0.975
0.0174238 -0.025 0.997255
0.0019671 0.00505206 0.975
0.025 -0.0188339 0.993859
-0.025 -0.0115366 1.00438
0.00621431 0.025 0.991643
0.025 0.00873372 0.982833
-0.0153874 0.025 1.01932
-0.0194959 -0.025 0.975801
-0.00564303 0.025 1.01214
0.0241917 -0.0106266 1.025
0.025 0.0135251 1.00931
0.025 0.00713399 1.01766
0.0171876 0.025 1.01001
-0.0139093 -0.0118833 0.975
0.00211466 0.025 1.01095
-0.0104838 0.0097152 0.975
0.025 -0.0240139 1.00563
0.0155352 -0.0244301 0.975
0.0202191 -0.01347 0.975
-0.025 -0.00211463 1.01645
-0.025 -0.0157371 0.998345
0.0238471 -0.0131526 1.025
-0.0244146 0.0137114 0.975
-0.025 0.0126843 1.01225
-0.025 -0.00663484 1.00917
0.0188534 -0.025 1.01827
0.025 0.0185891 0.999644
-0.0120521 0.025 0.982673
0.025 -0.0200285 1.02268
0.025 -0.01931 1.01251
0.025 0.00712218 1.0232
-0.0230873 -0.0193676 1.025
-0.025 0.00409195 0.987193
0.025 0.00664936 1.02163
0.025 -0.0168998 0.984305
-0.025 0.0202079 0.986325
-0.00498532 -0.025 0.987227
0.00931536 0.025 0.977382
-0.00449364 0.025 1.00204
0.00407486 -0.0112329 0.975
-0.025 0.00206767 1.01471
0.020302 0.025 1.00218
0.0160722 0.0192107 1.025
0.0142404 -0.0249454 0.975
-0.00281308 -0.025 1.0202
0.020942 0.025 1.01801
-0.0213033 -0.0133581 1.025
0.00858334 -0.025 0.98802
-0.0182189 -0.025 0.978511
0.0090522 0.00393952 1.025
-0.00103426 0.0100683 1.025
-0.0220355 0.0214495 0.975
-0.00417464 0.0151885 0.975
0.025 0.0247508 0.990599
0.0109754 -0.025 0.995411
-0.025 0.0118362 1.00861
-0.00363513 0.025 1.02448
-0.025 -0.0227647 0.994357
0.025 0.021606 0.996129
0.00845806 -0.025 0.986051
-0.0139095 -0.0161532 0.975
0.0172055 -0.025 1.01786
-0.0116441 0.025 1.00581
-0.025 0.00169337 1.0001
-0.025 -0.0178288 0.993192
-0.00058587 -0.0136367 1.025
-0.0086315 0.0213718 0.975
0.025 -0.0206264 0.984673
0.0187748 -0.00566629 0.975
-0.00168677 -0.025 0.993336
0.0144897 0.00105575 0.975
0.025 -0.023147 0.979837
0.00941123 -0.025 0.981635
-0.00388193 -0.0246779 0.975
-0.00286543 0.00557017 1.025
0.0166499 -0.025 1.00639
0.025 -0.0222413 0.996106
-0.0112666 -0.025 0.993726
-0.00891693 -0.0166245 1.025
0.0176455 0.0104486 0.975
0.025 -0.00857807 0.980883
-0.025 -0.000422169 1.02394
0.025 -0.0139317 0.996328
-0.0220492 0.025 1.00726
-0.025 0.0130392 0.976324
-0.008965 -0.025 0.983703
0.00364437 -0.025 1.0038
-0.020493 0.0183286 1.025
-0.025 -0.0121495 1.00399
-0.0153841 -0.025 0.993365
0.0238491 -0.025 0.994212
0.0181478 0.0194825 0.975
-0.00549565 -0.0182519 1.025
-0.0240789 -0.0214193 0.975
-0.0236626 0.025 1
0.01108 0.000402225 0.975
-0.0193474 0.025 0.99863
0.025 -0.011221 0.983072
-0.0060455 -0.025 1.00998
0.025 0.0211581 0.982194
9.60994e-05 -0.0196642 0.975
-0.025 -0.00310763 1.00502
0.025 -0.00982709 0.986004
0.0212116 -0.025 1.00941
0.00767152 -0.025 0.986133
0.025 0.000206617 0.995592
-0.00793459 -0.0207413 0.975
0.0100432 -0.025 1.01308
-0.005197 -0.021211 1.025
0.0248345 -0.00916766 0.975
0.0247722 0.025 0.989425
-0.025 0.00317076 1.0103
-0.025 0.006588 0.994288
0.000936824 0.025 0.987194
-0.0192903 -0.025 0.998333
-0.025 0.0165551 0.97775
0.025 -0.0238681 0.977407
0.02197 -0.025 1.01514
-0.0112672 0.0246599 0.975
0.00555456 0.00937658 0.975
-0.0141775 0.00483763 1.025
-0.0202325 0.0168292 1.025
0.0216863 0.025 1.02264
-0.0155486 -0.025 0.977942
-0.0196942 -0.000264428 1.025
-0.0163194 -0.025 1.00689
0.025 0.0170275 1.00538
-0.00582798 -0.025 1.00479
0.0249653 0.00869033 1.025
0.015758 0.00169041 1.025
0.00967137 -0.025 1.01074
-0.0130688 -0.025 0.995591
-0.000222594 -0.0143272 0.975
0.025 -0.00326795 1.00137
-0.025 0.00366054 1.00872
0.00704853 0.025 0.986014
-0.0214779 -0.025 1.02397
-0.0248431 0.0248132 0.975
0.00648257 0.0164914 1.025
-0.023403 0.0221323 1.025
-0.025 0.0108274 1.00951
0.0203885 -0.00597841 1.025
-0.025 0.0173906 1.01386
0.0236509 0.025 0.979464
-0.0015947 0.025 0.976049
0.0226003 -0.025 0.977723
-0.00961788 0.0177384 1.025
0.00253132 0.025 1.02295
0.0115267 -0.0219914 1.025
0.025 0.00732653 1.00452
0.025 -0.0137814 1.01035
-0.025 -0.00455798 1.01631
-0.000228156 -0.025 1.00044
-0.025 -0.0188665 0.998517
-0.0148953 -0.0063474 1.025
-0.025 0.0212718 1.00383
-0.0063749 -0.025 1.01363
0.025 -0.0239581 1.01896
-0.0115148 0.025 0.991798
-0.025 -0.00974589 0.980111
0.0066637 -0.00324727 1.025
-0.00892359 -0.0191802 0.975
0.025 0.0244296 0.993871
0.00168315 -0.025 1.00267
0.0109258 0.025 0.98195
-0.0054083 0.025 0.97659
0.025 0.00381989 1.01972
0.0222108 0.025 1.01999
-0.025 0.0216214 0.988616
0.019657 0.0193304 1.025
-0.025 0.00369786 0.989502
0.025 0.0198417 0.983568
-0.025 0.00348931 1.00377
0.00585967 -0.025 0.999584
0.018536 0.025 1.02337
-0.025 -0.0228761 1.02033
0.00428859 -0.025 0.990605
-0.0106369 -0.00584597 0.975
0.025 -0.0190554 1.00093
0.019896 0.025 0.980165
0.0161417 0.025 0.990515
0.0204809 0.025 1.02225
0.0133544 0.0236605 0.975
-0.025 0.0211695 1.01206
0.0126298 -0.00677399 0.975
-0.00883696 -0.0163843 0.975
0.025 0.0131159 0.984219
-0.00356655 -0.025 1.0003
0.025 0.0014623 1.02191
-0.0107495 -0.0194439 0.975
-0.0156839 -0.0201716 0.975
0.0175641 0.0159155 0.975
0.0164962 0.025 0.988972
-0.0129868 -0.025 1.00251
0.00122132 0.025 1.01153
-0.0155492 0.00985076 0.975
-0.025 0.0105628 1.01716
-0.0239169 -0.025 0.982792
-0.025 -0.0016242 0.980003
0.0186166 0.025 0.994148
0.025 -0.0033252 0.977354
-0.00731294 0.025 1.00999
-0.0202596 0.025 1.01682
-0.025 0.0159167 1.01686
0.000964542 -0.025 0.984455
0.0119476 -0.025 1.01743
-0.00894807 0.00168392 0.975
-0.00366611 0.025 0.978672
-0.00595395 0.025 1.0158
-0.00249892 0.025 0.98527
0.000285167 0.025 1.01597
-0.025 -0.00964513 1.02389
0.0244195 -0.025 0.985842
-0.025 -0.00749037 0.996833
-0.025 -0.024057 0.998691
-0.00163001 0.025 1.02413
-0.0201613 0.025 0.984886
-0.0213973 -0.0102118 0.975
0.0123458 0.025 0.993121
-0.0192596 -0.025 0.980619
0.00186701 -0.0142203 1.025
0.0141392 -0.025 0.975822
-0.0111106 -0.025 0.996979
0.00201269 -0.0212902 0.975
-0.00619561 -0.025 0.986029
0.0122134 -0.0178641 0.975
0.025 0.0140326 0.997609
0.0235622 0.025 0.994453
-0.0131235 0.025 1.02046
-0.0135933 -0.0130048 0.975
-0.017038 -0.00501295 0.975
-0.0177045 0.025 0.986294
0.025 -0.00285541 1.02177
-0.0170373 -0.025 1.01148
0.00670537 0.00866341 1.025
-0.000802083 0.00676847 0.975
0.00634005 -0.00225579 1.025
-0.0119706 -0.025 1.00533
-0.025 -0.00930816 1.00599
0.00426418 0.0154836 0.975
-0.025 -0.0228222 1.00715
0.00204619 -0.025 1.00598
-0.025 -0.0053886 1.02024
0.00546156 -0.025 1.01232
0.00304024 -0.025 1.01741
0.00546898 -0.00236123 0.975
-0.0249702 0.0063507 1.025
-0.025 0.0226705 0.980334
-0.00817318 0.025 0.996162
0.025 0.00241562 1.0233
0.0188916 0.025 1.02125
0.0219904 -0.025 1.00592
-0.00166927 0.00182098 0.975
0.0236694 -0.0140563 1.025
0.0210613 0.025 1.00195
-0.025 -0.00769499 0.986877
-0.00272493 0.0172952 0.975
-0.025 -0.0125589 0.991215
0.0133301 0.025 0.993509
0.000560189 -0.025 0.978161
0.025 0.00420484 1.00333
0.000251512 0.025 0.992544
-0.025 -0.00540192 1.02423
-0.0168114 0.025 1.00274
0.00703334 0.025 0.987727
-0.00162209 0.0242469 1.025
0.0202886 0.0115939 1.025
-0.00374028 -0.025 0.998702
-0.000348986 -0.025 1.0189
0.025 0.0222146 1.00773
-0.0229418 -0.0111644 1.025
-0.0154971 -0.025 0.98843
-0.0243464 -0.0169312 0.975
-0.00907353 -0.025 0.990903
0.025 0.0218975 1.00408
0.025 -0.0197059 1.00566
0.0182355 -0.025 1.01645
-0.00856746 -0.020058 0.975
-0.00119807 0.025 1.0067
-0.025 -0.00128428 0.9796
0.025 -0.0214421 0.988158
-0.0216381 0.0243804 1.025
0.0183388 0.00703852 1.025
0.0179414 -0.0164889 1.025
-0.00195066 -0.00432455 1.025
-0.019548 -0.00986991 1.025
-0.025 -0.0120461 0.990936
0.0174046 -0.00606833 0.975
0.025 0.0050624 0.988727
0.025 0.00392502 0.997201
-0.0220821 -0.00504274 1.025
0.0241308 0.025 1.00014
0.00459754 0.00813435 1.025
-0.024853 0.00987331 1.025
-0.00940349 0.025 0.988008
0.025 -0.0102328 0.975492
-0.025 0.0181397 0.979907
0.00444117 -0.025 0.987683
-0.0239333 -0.00918212 0.975
-0.0183705 -0.00507932 0.975
0.00858647 -0.025 0.990216
0.0116503 -0.025 0.991589
-0.025 0.0170966 1.02021
-0.025 -0.0152412 1.01013
0.0136363 -0.025 1.00869
0.00862188 0.0146373 0.975
-0.0170889 -0.0113094 1.025
-0.025 -0.0166506 0.985868
0.025 0.00908889 1.01114
0.025 -0.00774283 0.999564
-0.0201685 0.0023492 0.975
-0.0115954 0.0249995 1.025
0.0187716 -0.0204206 0.975
-0.00943499 -0.00723933 1.025
0.0176287 -0.025 1.00954
-0.000237243 0.00531106 1.025
-0.00107013 0.025 1.02395
-0.00501745 0.025 1.00201
-0.025 -0.0022714 1.00892
0.025 0.0245699 1.01486
-0.0243117 -0.00482894 1.025
-0.00432688 -0.0235519 0.975
-0.0111007 -0.000970688 0.975
0.00588712 -0.025 1.0125
-0.0215678 0.025 0.979557
-0.00364963 -0.00501665 0.975
0.010516 0.025 0.995919
0.0158988 0.025 0.996064
-0.0105724 -0.025 1.00536
0.0076976 -0.0131381 1.025
-0.025 -0.0197193 1.02079
-0.00837857 -0.00521483 1.025
-0.00682194 0.0195392 1.025
-0.0185129 -0.00518073 0.975
-0.025 -0.00592407 1.02488
0.0227533 0.00452898 0.975
-0.00332933 -0.025 1.00534
-0.025 0.0234991 1.00186
-0.0234911 0.0235194 0.975
-0.0081096 0.025 0.99028
0.025 -0.0209758 1.01039
-0.025 -0.00296776 0.993637
0.025 -0.0205743 0.977475
-0.00104381 0.0165375 1.025
-0.025 0.0110909 1.00872
-0.0147466 0.025 0.982158
-0.00279562 0.025 1.01054
-0.000430564 0.017729 1.025
-0.00998373 0.0111465 1.025
-0.0114585 -0.0155163 1.025
0.025 -0.021645 1.00656
0.018496 -0.0170207 1.025
-0.0234422 0.00500993 1.025
0.00167204 0.0136378 1.025
-0.025 0.00469744 0.981758
-0.0105964 -0.025 0.976177
-0.0183406 0.025 0.998766
0.025 -0.0188821 0.988538
-0.0125302 -0.0188398 0.975
-0.0203572 -0.025 1.01731
-0.025 0.0152767 1.00332
-0.0243912 0.0233039 1.025
0.0105662 0.000440942 0.975
0.000526114 -0.0163142 1.025
0.025 0.0151729 1.00338
-0.00225753 -0.025 0.994551
-0.000802404 -0.025 0.995815
0.0248115 -0.00696226 1.025
-0.00127102 0.021676 1.025
-0.025 -0.0128764 1.00145
0.025 0.00264819 0.977241
-0.025 -0.00896172 1.00276
-0.00366191 0.025 1.02039
-0.0180656 0.025 0.997928
0.00026355 -0.025 1.02379
-0.025 0.00692604 0.989704
0.025 -0.0211852 0.986968
-0.0125847 -0.025 0.981125
-0.00556885 0.025 0.992607
-0.025 -0.0238092 0.981555
-0.025 0.022697 1.00156
-0.00244474 0.00715949 1.025
-0.025 0.0219801 1.00417
0.025 0.00093801 1.01961
-0.000488101 0.00588974 1.025
0.0109479 -0.025 0.999126
-0.025 -0.00479484 0.976887
0.0221398 0.00369982 0.975
0.025 0.0133933 0.998895
-0.0149231 0.0135707 0.975
0.0242251 0.0193188 0.975
-0.0102955 0.010978 1.025
0.0231471 -0.025 0.98443
-0.01802 -0.025 0.982768
-0.0217063 -0.025 1.01025
0.025 0.00662851 0.976687
0.025 -0.0159768 1.01733
0.00664499 0.025 1.01427
-0.025 0.0130505 0.976232
-0.00178781 0.025 1.01616
-0.025 0.0196942 0.998355
-0.0226186 -0.00386816 1.025
-0.0153342 0.00561978 0.975
-0.025 -0.0140585 0.99814
0.00773885 -0.013657 1.025
-0.025 -0.00990602 0.986121
-0.00904258 -0.025 1.00095
0.025 -0.00157998 1.00524
0.0197832 -0.025 1.01114
-0.025 0.0031806 1.01094
0.0239282 -0.00190571 1.025
0.00997762 -0.00571899 1.025
-0.025 -0.0082515 1.02001
-0.00249951 0.025 0.995809
-0.025 -0.019563 0.983717
-0.025 -0.0122254 1.02075
-0.025 -0.00852109 0.976269
-0.0170978 0.0208763 0.975
0.0129293 -0.00392619 1.025
0.025 -0.0163604 0.981156
0.017962 0.025 0.996664
-0.0133806 -0.00175035 0.975
0.025 -0.00769315 1.02459
-0.025 0.00861746 1.02461
0.00112634 0.025 1.00336
0.025 0.00212441 0.976878
0.00829202 0.00593139 0.975
0.0131294 -0.0203991 0.975
0.00861111 0.025 1.00514
0.025 -0.00548049 0.980617
-0.0171336 -0.0145895 0.975
-0.0090826 -0.00559353 0.975
-0.0139327 -0.025 1.00334
-0.025 -0.00995264 1.01809
-0.025 -0.00479015 1.00408
0.025 0.00647094 0.976675
0.0113236 0.0229338 1.025
0.0233277 0.00694711 1.025
-0.00917324 0.025 0.99432
0.00585893 -0.0050648 0.975
-0.025 0.0222608 0.983055
-0.025 0.00281185 1.00188
0.0248269 -0.025 1.00302
0.025 0.0110105 0.99461
-0.0112702 0.025 1.0201
-0.025 0.0196205 0.977782
0.0234878 -0.025 1.00456
0.0182433 -0.00372545 0.975
-0.00525333 -0.00773523 1.025
0.00538301 0.00246727 0.975
0.025 0.00746942 0.98675
-0.00784034 -0.0155965 0.975
-0.00233883 -0.025 0.9983
0.00631555 -0.0125441 0.975
0.0141034 0.025 0.9943
-0.0047501 0.00444636 1.025
0.025 0.0215098 1.00514
0.0239237 0.0159064 1.025
-0.025 -0.00716983 0.983832
0.0119911 0.025 0.985704
-0.025 0.0228999 0.983282
-0.0206637 -0.0131893 0.975
0.0195399 0.025 1.01447
-0.0052504 -0.0224128 1.025
-0.025 -0.0212189 1.01651
-0.0191529 0.025 1.01673
0.000497421 -0.00762 1.025
0.025 0.00306399 1.01369
-0.0147539 0.0189961 0.975
0.0129577 0.025 1.01425
-0.00385676 0.025 0.975873
-0.00175615 0.025 0.989664
-0.0214393 -0.025 0.995832
-0.0119329 0.025 0.984089
0.00428695 -0.025 1.021
-0.0179755 -0.0119765 1.025
-0.0168205 0.025 1.00489
-0.0189162 -0.00557978 0.975
0.0126319 -0.025 1.00456
-0.025 0.0111143 0.978702
-0.00633508 -0.0117246 1.025
-0.0192057 -0.00466739 1.025
0.00371372 -0.025 1.01897
-0.025 -0.0103055 1.00925
0.023764 -0.025 0.977217
0.019324 0.0203614 0.975
0.0142705 0.0155544 0.975
-0.00662681 -0.025 0.9785
0.0133658 -0.025 1.00107
0.0167604 -0.00488964 1.025
0.025 0.0181689 0.981002
-0.025 0.0176014 0.977557
0.025 0.0138367 0.992499
-0.012324 0.025 0.997253
-0.025 -0.00806913 1.00696
0.00636159 0.025 0.978449
0.018022 -0.00857097 0.975
-0.0032596 0.025 0.998593
0.0196981 -0.025 1.00379
0.00284881 0.0194671 1.025
0.025 -0.0173945 1.00582
0.0211566 -0.025 0.993976
-0.025 0.00165594 0.994246
-0.0142347 0.025 1.01819
0.0168318 0.025 1.01008
0.00844558 0.025 0.979429
0.025 0.0039978 0.990879
-0.025 -0.0056682 1.01185
0.00461698 0.025 0.998784
0.000844857 -0.021421 0.975
-0.0181298 -0.0119653 0.975
-0.0237194 -0.025 0.986551
-0.00874762 0.025 1.01184
-0.025 -0.00435622 1.01343
-0.0071332 -0.0181403 0.975
-0.00292975 0.0192267 0.975
0.00918918 -0.025 1.01967
-0.0111337 0.0213768 0.975
-0.0144103 -0.025 0.99696
-0.0016266 -0.0203353 0.975
-0.025 0.0054012 0.997042
0.025 0.0114204 0.978185
-0.0158591 0.0198966 0.975
-0.00359691 0.0109287 0.975
-0.00839301 -0.0216751 0.975
-0.0102771 -0.025 1.00802
-0.025 -0.0043568 0.98409
0.025 0.0033408 1.02167
-0.0101517 0.00136705 1.025
0.025 -0.0212014 1.01986
0.00175008 -0.00500313 0.975
0.025 -0.0115603 1.016
-0.0236773 0.00950607 1.025
0.023445 -0.00483714 1.025
-0.0132937 -0.025 1.00635
0.025 -0.0239969 0.977528
-0.020886 0.025 1.01991
-0.025 -0.0164987 1.0022
-0.025 0.0150878 0.998689
0.025 0.00216348 0.996687
0.00961113 -0.025 1.00679
0.025 -0.0205847 0.995277
0.0234716 0.025 0.976429
0.00262873 -0.0221395 0.975
0.025 -0.007328 0.990444
0.025 0.0140781 0.979823
0.0133614 -0.0225001 0.975
0.025 -0.00411956 0.981857
-0.0200804 0.00483711 0.975
0.025 0.000153148 1.0214
0.0142335 -0.025 1.00178
-0.018954 -0.000792573 0.975
-0.025 -0.0172257 0.996953
0.0153319 0.025 0.999397
-0.025 0.00631889 1.01568
-0.025 -0.0169139 1.01684
0.00841288 0.025 0.997667
0.00907792 0.0115928 0.975
0.00114458 -0.0143387 0.975
0.0111748 0.00759962 0.975
0.0155931 0.0202437 0.975
-0.0241817 0.025 0.97754
0.025 -0.0225954 0.975582
-0.0231825 0.018742 1.025
0.025 0.00565185 0.975846
0.0186148 0.0169667 1.025
-0.025 -0.0126603 1.01385
0.0171506 0.025 1.02231
0.00579402 0.0173869 0.975
-0.025 -0.00332483 0.996615
0.025 0.0221993 0.992938
-0.025 -0.0116957 0.980812
-0.0151599 -0.00818489 0.975
-0.00585715 -0.025 1.00169
-0.025 -0.0188143 1.00875
0.025 0.0214585 0.9983
0.00375404 0.0111043 1.025
-0.0225141 0.025 1.01179
-0.0100755 -0.025 1.02401
0.025 0.022892 1.0168
0.0245201 -0.025 1.02197
0.025 -0.00046467 0.997051
-0.0187409 0.025 1.00505
-0.00651764 0.0174706 1.025
0.0107502 0.010358 0.975
-0.0178523 -0.025 1.0176
-0.025 -0.0106102 0.9954
-0.025 0.00642002 0.992059
-0.025 0.010039 0.987459
0.0164985 0.020906 0.975
-0.0171101 -0.0144581 0.975
0.0207511 -0.025 1.0248
0.00946191 -0.0223383 0.975
0.0161972 -0.025 1.00176
-0.025 0.00544351 0.990752
0.025 0.010484 1.01531
0.025 0.000404995 0.994527
-0.025 0.00383766 0.979239
-0.0173752 -0.025 0.993635
-0.00831673 -0.0117465 0.975
0.0219288 0.0210684 1.025
-0.0102509 0.00397965 1.025
0.00427315 -0.025 0.99783
0.025 -0.00810652 0.983562
9.35788e-05 0.0136627 0.975
0.025 0.0106959 0.986116
0.025 0.0120439 0.985326
-0.025 -0.0165575 1.00569
-0.00579918 0.019854 0.975
-0.025 0.021029 1.00939
-0.025 -0.0176294 1.00233
-0.0236433 0.0138887 0.975
0.025 -0.014478 1.00724
-0.00542351 -0.022149 1.025
-0.0236415 0.0175131 1.025
0.00161446 -0.025 1.00271
0.0226374 0.0210957 1.025
-0.0131974 -0.025 0.9974
0.0108841 0.00100731 0.975
-0.0028344 -0.0095538 1.025
0.0118364 0.025 1.00089
0.025 -0.0146036 0.979471
-0.025 -0.0105965 0.998602
-0.0159696 0.00611724 0.975
-0.0221454 0.00289255 0.975
0.025 -0.00252418 0.984949
-0.0125895 0.025 1.02472
0.0249706 0.0115507 0.975
-0.025 0.0141864 0.980807
-0.025 0.0191111 0.985702
-0.025 0.0121105 1.01228
-0.0249751 0.00864147 0.975
-0.0200949 0.0177253 1.025
-0.0172453 -0.00546157 0.975
-0.00645044 0.025 1.01103
-0.00991353 0.025 1.02249
-0.025 -0.0218866 0.989488
-0.0176203 -0.00515278 1.025
-0.0100229 -0.0078988 1.025
0.0104533 0.021821 1.025
0.00269054 -0.025 0.999724
-0.019897 0.025 1.01209
-0.025 -0.00352067 1.00696
0.022849 -0.000870075 1.025
0.025 -0.00290014 0.995544
-0.0192362 -0.025 0.982685
-0.025 -0.0227775 0.976949
0.00960763 -0.025 0.976215
0.0207515 -0.025 0.990871
-0.00399857 -0.025 1.01019
0.00521246 -0.000245295 1.025
-0.0204143 0.0110479 0.975
0.025 0.00573354 0.99475
0.0175655 0.019371 0.975
0.00256376 -0.025 0.988653
0.0065413 -0.0122194 0.975
0.00993914 -0.0115315 0.975
-0.025 -0.0238733 0.992138
0.00636958 -0.0181108 0.975
-0.025 0.00850894 0.987975
0.0241253 0.025 0.986741
0.0035267 -0.025 1.00107
-0.000172794 -0.0104757 0.975
-0.0123411 0.00924922 1.025
0.0242043 0.025 1.01399
-0.00995059 0.025 0.987423
-0.016381 0.0176119 1.025
-0.010137 -0.025 0.980447
-0.0172745 -0.00165622 0.975
0.00412128 0.025 1.01769
-0.00145141 0.0173461 0.975
-0.00268223 -0.00974807 1.025
-0.00902559 0.0126172 0.975
-0.0193499 0.025 1.02057
-0.00308543 0.0218422 0.975
0.0207238 -0.0174388 0.975
-0.00846802 0.0180898 0.975
0.0180099 -0.0185631 1.025
-0.0227891 -0.025 0.994428
-0.025 -0.0244332 1.01438
0.025 -0.0133691 1.01231
0.025 0.0213885 0.992331
0.000132594 -0.025 1.02492
0.025 -0.0244604 1.02418
-0.025 -0.00550187 1.01194
-0.0238512 -0.025 1.01237
-0.0211085 -0.025 0.992781
0.0131618 -0.025 1.01282
-0.0225229 0.0138019 1.025
-0.00908088 0.025 1.02356
-0.025 0.023616 1.01081
0.0220603 0.025 1.01008
-0.0192931 -0.025 0.998614
-0.00280352 -0.0232607 0.975
0.025 -0.0212535 1.00093
-0.0146385 0.025 0.998329
-0.0197146 -0.00967633 1.025
0.025 0.00366144 0.994636
-0.00763746 0.025 1.0056
-0.025 0.00858234 1.00992
-0.0137784 -0.0101991 0.975
0.025 -0.00762504 0.981507
-0.0177685 0.025 0.98651
0.0204862 -0.017101 1.025
0.025 -0.00566917 0.990457
-0.0170404 0.025 1.01856
0.000199815 -0.025 1.02017
-0.00857421 0.025 1.02365
0.025 0.00189774 0.986082
-0.0128021 0.025 0.997106
-0.0189068 -0.0132075 1.025
0.00888824 0.025 0.999693
0.0202071 0.025 0.991489
-0.0165973 -0.025 1.01034
-0.00131763 -0.025 0.986428
0.0199503 0.0209335 0.975
-0.0185947 -0.0141796 1.025
0.00227158 -0.025 1.01943
0.025 -0.00840195 0.982094
0.012098 0.0236695 0.975
0.00184366 -0.025 1.02082
-0.0196929 0.0121783 1.025
-0.025 0.0205906 1.00002
-0.025 -0.00071266 0.997312
-0.00331375 -0.025 0.985835
0.0031269 -0.025 1.02401
-0.017766 -0.025 0.975301
0.013167 -0.00938502 0.975
-0.00366338 0.00703238 0.975
-0.025 0.0180281 0.981965
0.00199482 0.025 1.00146
0.00460362 0.0092336 1.025
-0.025 0.0183818 0.990364
0.0228677 -0.0120423 1.025
0.0119399 0.025 1.02359
-0.025 0.010485 1.02061
0.025 -0.00996004 0.99805
0.025 -0.0188369 0.985029
0.025 0.0161611 0.979982
0.025 0.0231735 0.980561
0.025 -0.0220677 1.02411
0.025 -0.00744877 0.985541
-0.0234901 -0.0105469 1.025
-0.025 -0.0130951 1.00988
-0.0129685 -0.025 0.98198
0.00300643 -0.025 1.00275
-0.0157701 0.025 0.979908
-0.0152394 0.0200809 1.025
0.00408199 -0.025 1.01891
-0.0037756 -0.025 1.00594
0.0147892 0.00764221 0.975
0.025 0.00451869 1.0188
0.0245055 0.025 0.978913
-0.0166346 0.025 1.00038
-0.025 0.0237416 0.993792
0.00910003 0.025 1.02261
-0.00623947 -0.025 1.01261
-0.025 0.0193191 0.997839
-0.025 -0.01652 1.01733
-0.0205155 0.00434819 1.025
0.00661057 0.025 1.02251
0.025 -0.0152655 0.997542
-0.00919247 0.0117299 0.975
-0.0156502 0.025 0.990373
0.025 0.0153928 0.996548
0.025 0.0157581 0.992347
-0.025 -0.0156127 0.990458
0.025 -0.0179504 0.982098
0.00907693 0.0233068 1.025
0.025 -0.021416 0.98542
-0.00780574 0.025 0.97898
0.000918481 0.025 0.996955
0.025 0.00775351 1.02334
0.025 0.0245185 0.977295
-0.025 -0.0125067 1.00056
0.0122165 0.00211827 1.025
0.019336 0.0207676 1.025
-0.0226704 0.00511292 1.025
-0.025 0.0131236 1.02465
-0.025 -0.00320792 1.01028
0.00334023 -0.025 1.01573
-0.0080891 -0.025 0.983014
-0.012476 -0.025 0.978939
0.025 0.0219031 1.01454
0.0244421 -0.025 0.980317
0.0129382 0.0180512 1.025
0.000617865 -0.0126398 0.975
-0.00301283 -0.025 0.981719
-0.025 -0.0201515 1.01908
-0.025 -0.0111987 1.01039
0.025 -0.00869546 0.975552
-0.025 0.0153095 0.980644
-0.00425506 0.025 0.99172
-0.025 0.0245616 0.997849
0.00114829 -0.0112926 1.025
0.025 0.00189391 1.0174
0.025 0.0248321 0.98915
0.00479863 -0.025 0.996763
-0.025 0.00381258 0.988388
-0.0116165 0.0147502 1.025
0.0164377 0.00573128 0.975
0.0243075 0.0225779 0.975
-0.0127556 -0.025 1.00811
-0.025 -0.00331972 1.01741
0.025 -0.0197591 1.01162
0.0226201 0.025 1.01916
0.0240878 -0.0193891 1.025
0.0159259 0.00331738 0.975
0.00469994 -0.025 1.00854
-0.025 0.0196602 0.986973
-0.0184969 -0.025 0.976507
-0.025 0.0125934 1.00617
0.025 0.00537599 0.987838
0.00426593 -0.025 0.997577
-0.0124325 -0.0144225 1.025
0.00842193 0.00521661 1.025
-0.025 0.000484974 1.00349
-0.00803389 -0.025 1.02412
-0.0172495 -0.025 1.01306
0.025 -0.0224247 0.975361
0.00583089 0.0112431 1.025
-0.0191397 -0.00993897 0.975
-0.0011197 -0.025 1.00996
-0.025 -0.0247209 0.989405
0.025 -0.0108679 1.01933
0.00267558 -0.025 0.984835
0.0104688 -0.025 0.998673
-0.025 0.0107854 1.00398
0.025 0.0232236 1.00464
-0.025 -0.005848 1.01996
-0.025 0.0175579 1.00466
-0.025 -0.0238544 0.976737
0.0247826 -0.025 1.02053
-0.025 0.0136805 0.985296
-0.0192516 -0.00543936 0.975
0.00405551 -0.025 0.975307
0.0224702 -0.0200263 1.025
-0.025 -0.020824 0.981387
0.025 0.0216219 0.994897
0.009051 0.025 0.988158
0.00776132 0.025 1.00149
-0.00725733 0.0129437 0.975
0.0177231 0.0225463 1.025
0.016072 0.0179702 0.975
-0.0211078 0.00731997 0.975
-0.002101 -0.00837373 1.025
0.0178746 -0.00434614 0.975
0.0207935 0.025 1.01648
0.0219169 -0.025 0.984228
-0.00164324 0.025 0.987919
0.00144295 -0.00852702 1.025
0.00927328 -0.025 0.983937
-0.0136334 -0.025 1.00848
-0.025 -0.0202045 1.01222
-0.00430007 0.014608 0.975
-0.025 0.0106379 1.00089
9.60482e-06 -0.0190299 0.975
-0.0153367 0.0191279 1.025
-0.00272591 -0.025 0.984003
-0.00948034 0.0132689 0.975
-0.025 -0.0105561 1.02046
0.025 0.0216945 1.00942
0.00122318 -0.025 1.01797
0.025 -0.0226685 1.00012
-0.025 -0.00682988 0.978898
0.00757375 -0.00913357 0.975
-0.0138999 -0.0217006 0.975
-0.025 -0.0245813 1.01187
0.0227992 -0.025 1.00681
0.025 -0.00536902 0.990739
-0.0175556 0.025 1.01777
-0.0170435 -0.0112171 0.975
0.025 0.00503394 0.977396
-0.0106769 -0.025 1.01272
0.002444 -0.0217587 1.025
-0.025 -0.0206794 0.993446
-0.0122523 -0.025 0.993659
-0.0174406 -0.025 0.983479
0.0212572 0.000386307 1.025
0.0227028 0.0166503 0.975
0.000915238 0.011598 1.025
0.00935822 -0.0173671 0.975
-0.0212346 0.025 1.00199
0.025 0.00152984 0.976417
-0.025 0.0113018 0.996542
0.025 -0.016607 0.986806
0.025 -0.0192819 0.999584
0.0123478 0.0217779 0.975
0.0140038 -0.025 0.979268
0.00339267 -0.025 0.984553
-0.00457016 0.0126896 1.025
-0.025 -0.0137339 0.982495
0.0244463 0.025 0.978814
-0.025 0.00232517 1.01271
-0.00126568 -0.025 0.98111
-0.0229604 0.0215008 1.025
-0.0112761 0.025 0.979322
0.00378202 0.025 0.981038
-0.00362073 0.025 1.01432
-0.025 -0.000413634 0.988507
-0.0039494 -0.025 0.999608
-0.00248145 0.025 0.997922
0.00204972 -0.020808 1.025
-0.025 0.0194998 0.992084
0.025 0.010159 0.977963
0.0183083 -0.025 1.01341
-0.0203934 -0.0150898 1.025
0.0112028 -0.025 0.980581
0.0112913 -0.0230426 0.975
0.00474663 -0.025 0.988506
-0.0141451 0.025 1.01846
-0.0143288 -0.00161632 0.975
0.00138989 0.0172427 0.975
0.00799649 -0.025 1.02188
-0.0230879 -0.00790824 1.025
-0.00297548 0.00832396 1.025
0.025 -0.000172332 1.02395
-0.0211541 0.0164698 1.025
-0.025 -0.00890245 0.998751
0.0178252 0.025 0.988431
-0.025 0.0190733 1.00949
0.00461916 0.025 0.999729
-0.025 -0.019995 0.986985
0.025 0.0125364 0.979511
-0.0174771 -0.025 1.00375
-0.025 -0.00355293 1.00902
0.00423348 0.025 1.0108
0.00710598 0.00763187 1.025
-0.0210817 -0.025 1.00093
0.025 -0.0126599 0.983988
0.025 -0.0172435 0.998978
-0.025 0.0164443 0.978366
-0.025 -0.0247092 0.997854
0.025 -0.00488289 0.982324
-0.025 -0.00887635 1.00781
0.0106454 0.0164126 0.975
-0.0139787 -0.0156234 1.025
-0.025 0.00851582 0.992052
0.00134137 0.025 0.981639
0.0176951 0.0206107 0.975
0.00844942 -0.025 0.975779
-0.00281858 0.025 0.977943
-0.025 -0.0175297 1.00658
0.00105062 0.025 1.02483
-0.022441 -0.0131465 0.975
0.0196362 -0.0232997 1.025
0.0169027 0.0202387 1.025
0.0226721 -0.0079261 0.975
0.0207207 0.025 1.02487
-0.000339953 -0.025 0.977642
0.0154665 0.00385652 0.975
-0.0105671 -0.025 0.996692
0.025 0.00891676 1.01848
-0.0235376 -0.025 0.986024
-0.025 0.0184512 0.989284
0.0213084 -0.025 0.994219
0.0174564 -0.025 1.00353
0.0110471 -0.025 0.994047
-0.00824659 0.00601945 0.975
-0.0154796 0.025 0.976487
0.0130063 0.025 1.00592
0.00629942 0.00138671 0.975
0.00406624 0.0221526 1.025
0.0214767 0.00197658 0.975
-0.0109922 0.0179204 1.025
-0.025 -0.00978786 1.00521
0.025 -0.0165185 1.00725
0.0223722 0.025 0.983372
0.0114482 -0.025 0.994853
-0.0157323 0.00265102 0.975
0.00597572 -0.025 0.998754
-0.000133401 0.00159733 0.975
-4.55595e-05 0.025 1.00597
0.0086232 -0.025 1.00026
-0.00593669 0.0230744 0.975
-0.025 0.0103783 1.00702
-0.0248481 0.025 0.993033
-0.015075 -0.025 0.982039
0.0201834 0.0037591 0.975
-0.0204802 -0.025 0.980789
0.025 -0.0216421 0.98242
-0.00870928 -0.0146438 0.975
0.019381 0.025 0.998401
0.00748683 -0.0191518 0.975
0.0116038 -0.0153207 0.975
-0.00728142 0.025 0.978567
-0.025 0.00764523 1.02052
0.0089314 -0.0032575 0.975
-0.025 -0.0227497 1.01353
-0.0115922 0.00423384 1.025
-0.025 -0.0214565 0.978941
0.0173093 -0.0122143 0.975
0.025 0.0249941 1.01069
0.00241556 0.025 0.975348
0.0119512 0.025 1.0009
-0.0052731 0.025 0.984888
-0.0231881 0.0249226 1.025
-0.00668836 -0.0103666 1.025
-0.025 0.0106564 0.999638
-0.025 -0.00391894 0.978996
-0.0239795 0.0200015 0.975
0.025 0.0206822 0.986214
-0.02081 -0.025 1.00983
0.00382076 0.025 1.00285
0.025 -0.00184415 1.02418
-0.025 -0.000114075 1.01992
0.025 -0.00704714 0.996952
-0.0128484 -0.00055432 0.975
0.00108826 0.00153107 0.975
-0.0198376 0.025 1.02095
-0.00495052 0.00241736 0.975
-0.0139033 -0.0165272 0.975
-0.025 0.0109872 0.982493
-0.0102832 0.025 1.00599
0.00457181 -0.025 0.977025
0.0131356 -0.00661318 0.975
0.025 -0.0219147 1.01869
0.0092548 -0.00808113 0.975
-0.0194046 -0.025 1.00243
0.025 -0.0112462 0.999013
-0.025 -0.00348563 0.983433
0.00362395 0.025 0.978236
-0.025 -0.00681851 0.991946
-0.0231466 0.0210619 0.975
0.0170136 -0.025 1.01247
0.014373 -0.0216977 1.025
-0.0223572 0.0160558 0.975
-0.00925804 -0.0205772 0.975
-0.0127198 -0.025 1.00396
2.04733e-05 0.00690144 0.975
0.0220448 0.00883689 1.025
-0.0154539 0.000103052 1.025
-0.0147109 0.025 0.977589
0.00245219 0.00465127 0.975
0.0127609 -0.025 1.01153
-0.025 0.018592 1.00809
0.00880435 0.025 0.993206
-0.0125343 0.0227098 0.975
-0.0111698 -0.0189089 1.025
0.025 -0.0244339 1.00558
-0.025 -0.0222382 0.979068
-0.025 0.0111124 0.979542
-0.00159717 0.025 0.987833
-0.0153481 0.000807756 0.975
-0.025 0.0119582 1.02133
-0.0210074 -0.00404753 0.975
0.025 -0.00259367 1.01449
0.025 -0.00311405 0.997472
-0.000130323 -0.025 1.01855
-0.00721291 -0.0221421 1.025
-0.00787612 -0.025 1.00368
-0.025 -0.00340296 0.992086
0.0007632 -0.0242919 1.025
-0.00130025 0.025 1.02371
0.0244347 -0.025 0.999764
-0.0153951 0.003832 1.025
-0.0227991 -0.025 1.02052
-0.00694525 -0.025 1.02049
-0.00415052 0.025 0.981923
0.025 -0.022725 0.978634
0.01154 0.025 1.01544
0.025 0.0111397 0.987767
0.0178006 -0.00571586 1.025
0.0248581 0.0119105 0.975
-0.0173812 -0.00429466 1.025
-0.0220126 -0.025 0.999954
-0.0205304 0.025 0.998574
-0.00632795 -0.025 1.02018
0.0210357 0.0161323 1.025
0.0118111 0.025 0.98724
-0.0246412 0.0124861 0.975
-0.0197402 -0.00834293 0.975
0.0121835 -0.00390051 1.025
-0.025 -0.00852314 1.00844
-0.000129766 -0.025 1.00703
-0.00318566 -0.0249254 0.975
0.0142518 0.00487045 1.025
-0.0235861 -0.025 0.98571
0.025 -0.0135469 0.985459
-0.00970474 -0.025 0.984408
-0.013217 0.025 1.02045
0.00300596 -0.025 1.00518
0.00878691 -0.0197025 1.025
0.025 -0.0113605 0.976477
0.0159929 -0.025 0.988035
-0.00195363 0.025 1.01985
0.0127615 0.025 0.979684
-0.0159839 -0.025 1.01298
0.025 0.00786382 0.97983
0.025 0.00748333 1.00036
-0.025 0.00551519 1.01814
-0.00379105 -0.025 0.986532
4.90407e-05 -0.0220849 0.975
-0.0186523 0.025 0.976794
0.00241519 -0.01357 0.975
-0.0159826 -0.0136103 1.025
-0.025 -0.0155076 1.01106
0.025 -0.0182477 1.01789
-0.0128667 0.0144202 1.025
0.0137418 0.025 0.998314
0.025 -0.0160101 0.977064
0.0166368 0.00514016 0.975
0.025 -0.00169884 0.981575
-0.0106461 -0.0168331 1.025
-0.0102665 -0.025 1.00333
0.0146693 0.0048244 1.025
0.025 -0.00219393 1.01224
-0.0197251 0.00980526 0.975
0.025 -0.0219401 0.996411
0.0147767 -0.018796 0.975
0.025 8.69926e-05 0.982683
0.025 0.0132927 1.0186
-0.000127729 -0.025 1.019
0.0147373 -0.00260829 1.025
-0.000624398 0.0133633 0.975
-0.025 0.00506943 0.981369
-0.025 0.0244283 0.98901
-0.00253428 -0.0228198 1.025
0.0177138 -0.00879254 1.025
-0.025 -0.0223147 1.01809
-0.00734878 -0.00686639 0.975
0.0131022 -0.0216698 1.025
0.0244736 -0.00999485 1.025
-0.0231741 0.025 0.978313
-0.025 0.00690647 0.99307
-0.0212619 0.00770753 1.025
-0.00407232 0.025 1.01524
-0.00729057 0.0161864 1.025
-0.0063752 -0.0103065 0.975
0.00163953 -0.018121 0.975
0.0194797 0.0120835 0.975
-0.00714187 -0.0140681 1.025
-0.00629088 -0.0139756 0.975
-0.0177609 -0.025 0.983304
0.00375959 -0.025 0.975899
0.0126944 -0.0107352 0.975
-0.00295468 -0.025 1.0168
-0.025 0.0201932 0.996167
0.025 0.00201624 0.980308
0.00178398 0.00458044 0.975
-0.0232804 -0.025 0.988636
0.00158372 0.025 0.990434
0.025 -0.0193038 1.00932
0.025 0.0139845 0.989316
-0.025 0.0130497 1.01378
-0.0214128 -0.025 0.995714
0.0212776 0.025 0.977437
-0.025 0.00925873 1.02206
0.0221942 0.025 0.981224
-0.0111114 -0.025 0.990259
0.0133423 0.00909 1.025
-0.0177632 -0.025 1.0147
-0.0124438 0.025 0.986226
0.00404401 -0.0179638 0.975
0.025 -0.0200664 0.992982
0.0104893 -0.00335369 0.975
-0.014433 0.0108289 0.975
0.0234313 0.025 0.986549
-0.0150618 -0.025 0.99342
0.00592592 0.0197644 1.025
-0.0217029 0.0134999 1.025
-0.025 0.00958903 0.985581
0.025 -0.000972116 1.00634
0.020349 0.00421096 0.975
-0.025 -0.0193521 1.01216
0.0174948 0.00669652 1.025
0.0118218 0.0066457 0.975
0.0244157 0.00415949 1.025
0.0213832 0.025 0.993894
0.0159313 -0.025 0.989235
0.025 0.0196184 0.994067
-0.014469 0.025 0.981326
0.0223761 0.0200212 0.975
0.0217832 0.025 0.99213
0.025 -0.00439975 0.980688
-0.0140206 0.00063376 1.025
0.025 -0.0209011 0.982201
-0.00382465 -0.00950266 0.975
0.0169701 -0.0206673 1.025
-0.0144821 0.025 1.02183
-0.0195926 0.025 1.00793
0.00627485 0.0128986 0.975
0.00219043 -0.025 0.980956
-0.025 -0.00825888 0.976459
-0.025 -0.0245408 1.02284
0.025 0.0167532 0.984195
-0.0135516 0.025 0.990483
-0.025 -0.0214317 1.01394
-0.0141214 -0.00319379 0.975
-0.025 -0.000228339 1.00618
-0.0243419 0.00227121 0.975
0.0035986 -0.0160244 0.975
-0.025 -0.00898751 0.981406
0.0119135 0.025 1.0225
-0.00954698 0.0242571 0.975
-0.025 0.0239744 1.02434
-0.0208748 0.025 1.00497
-0.0155395 -0.025 1.02464
-0.025 -0.00598974 0.980453
0.0190164 0.0220214 1.025
-0.0228388 0.025 0.99647
0.0230663 -0.025 1.00254
-0.0097144 -0.025 1.00558
0.0168179 0.025 0.977074
-0.00648785 0.0178343 1.025
0.025 0.0180251 1.02172
-0.025 0.00216243 0.996769
-0.025 0.0123113 0.982352
0.0104026 0.025 1.02319
-0.025 -0.0169762 1.01885
-0.00439548 -0.025 1.00459
-0.0211239 0.025 0.998821
0.022206 -0.025 1.02133
0.0161952 0.025 0.975319
-0.0185964 0.025 0.995191
-0.025 0.00281586 0.999872
-0.025 0.0183431 1.00557
-0.025 0.00211005 0.98057
0.025 0.0185697 1.00175
0.0112653 0.00411986 1.025
0.025 -0.00885037 0.98985
0.025 -0.0115966 1.00593
0.025 -0.00576207 0.998834
-0.0102486 0.00466096 0.975
-0.00842707 0.025 0.996516
-0.0235901 0.025 0.990131
-0.00872598 0.025 1.01438
0.025 -0.0216222 1.00063
0.0182891 -0.025 0.985676
0.0225395 -0.025 1.00146
-0.0104161 -0.00199775 1.025
0.025 -0.00335881 1.01129
-0.0181463 -0.025 0.985141
0.00110627 -0.025 1.02001
-0.025 -0.0152494 1.0166
0.00179783 0.0189065 1.025
-0.0105426 -0.017347 1.025
-0.0150432 0.0204389 0.975
-0.0210583 0.025 0.995129
0.025 0.024218 0.987918
-0.025 0.00932735 0.985598
-0.0247508 0.025 0.991281
-0.025 -0.00872066 1.00384
-0.0118923 0.00988589 1.025
0.00989892 0.025 1.01677
0.0233193 0.025 1.00041
0.00654527 0.025 0.984253
0.00537552 -0.0227962 1.025
0.00836364 -0.025 0.981119
0.00287812 0.025 1.00157
-0.0148855 -0.0208684 1.025
-0.00676941 -0.025 0.991495
-0.0185825 0.0144944 0.975
0.025 0.00500852 1.00285
0.00244465 0.0234983 1.025
-0.00196179 -0.00675259 0.975
0.025 -0.0225171 1.00761
0.0161496 -0.025 0.987307
0.0150574 -0.025 1.01411
0.025 0.0168399 1.00043
0.000722447 0.013773 0.975
-0.00972832 -0.025 0.989246
0.0191651 -0.0215107 1.025
-0.025 -0.00352662 0.997493
-0.025 0.0136217 1.00364
0.025 0.0125635 0.990267
-0.0158161 0.025 1.01543
0.00220074 -0.00517904 0.975
-0.0134589 -0.025 0.975186
-0.00316859 0.025 1.00127
-0.0073611 -0.0178917 1.025
-0.0223246 -0.025 0.981904
-0.0238688 0.0075134 0.975
-0.0119803 0.0145984 0.975
0.025 -0.0127745 0.999444
0.00658689 -0.00057285 0.975
0.0211136 -0.00579373 1.025
-0.025 -0.0148192 0.999234
0.0081558 0.025 0.986277
0.025 0.000403202 0.986263
0.0176311 0.025 1.01266
0.025 -0.000163247 0.987693
-0.0152913 0.025 0.989579
-0.025 -0.0147033 0.986125
-0.00860706 0.025 1.005
-0.025 0.0196968 0.986995
0.0249233 0.025 1.01555
0.0148127 0.025 1.00441
0.025 0.0229914 1.0162
0.0124886 0.025 1.02155
0.025 0.0229994 1.00971
-0.0168403 0.0163729 1.025
0.025 -0.0144457 1.01013
0.025 -0.00968755 0.984298
0.00579911 0.025 0.985455
-0.00453166 -0.00798078 1.025
0.00981423 0.0193906 0.975
0.025 0.0145824 1.01078
-0.0119625 0.025 0.992452
-0.00797084 -0.025 1.01073
0.025 0.00733814 1.02134
-0.0159286 0.00189806 1.025
0.0230958 0.0154186 0.975
-0.025 -0.0120227 0.975061
-0.0205633 0.000424807 0.975
-0.0165244 0.025 1.02417
0.00331 -0.025 0.991921
-0.025 -0.014183 0.979992
-0.015067 -0.0221603 0.975
0.0166727 -0.00566959 0.975
0.0142623 0.0233404 1.025
0.0135904 0.0112679 0.975
-0.025 0.00449915 1.00485
-0.00304845 0.00773842 1.025
-0.0174695 -0.0237766 0.975
0.0242992 0.025 0.981966
-0.0125793 0.025 0.997195
0.00412778 0.02007 0.975
-0.025 0.0116081 1.01874
-0.025 -0.010224 0.993394
0.00947964 -0.0239123 1.025
0.0116573 0.025 0.992598
0.0122294 -0.025 0.994275
0.025 -0.0139888 1.00921
0.025 0.00503002 1.00588
-0.010513 -0.0173101 0.975
0.00684518 0.025 0.979191
0.00261016 -0.0193814 1.025
-0.025 0.0107988 0.995571
-0.0223189 0.0086299 0.975
-0.0148031 0.025 1.00571
-0.00257627 -0.025 0.9984
-0.0233545 0.0228984 0.975
0.00671502 -0.0149917 1.025
-0.0207686 0.025 0.988076
0.025 -0.0197301 1.01037
0.025 -0.0181036 0.993981
-0.025 -0.0198665 0.997963
-0.0172027 -0.0070936 0.975
-0.0125043 -0.00552938 0.975
-0.025 -0.0175153 1.01726
0.025 0.0201146 1.01344
0.0236887 0.025 1.02277
0.0218993 0.025 1.0193
-0.014606 -0.00190997 1.025
-0.0121301 0.025 0.997441
-0.0189073 -0.02054 1.025
-0.025 -0.00723469 0.996373
