ply
format ascii 1.0
element vertex 1274
property float x
property float y
property float z
property uchar red
property uchar green
property uchar blue
end_header
-0.146903 -0.292297 0.145245 127 127 0
0.372164 0.270942 0.300342 0 255 0
-0.088675 0.809512 -0.421230 127 0 127
0.338791 0.186605 -0.114135 127 0 127
0.016976 -0.558793 0.110978 153 0 76
-0.034607 0.526689 -0.314232 127 0 127
0.405226 0.101819 0.169146 255 0 0
-0.003621 -0.026524 0.493755 255 0 0
-0.365012 0.574565 -0.296265 127 0 127
0.445525 0.518449 -0.171581 127 0 127
0.388701 0.344394 0.196150 0 255 0
-0.320906 -0.025884 0.455756 255 0 0
-0.166172 -0.140198 0.272413 127 127 0
0.278857 -0.012166 0.496704 255 0 0
0.224301 -0.003834 0.470375 255 0 0
-0.361241 0.243942 -0.129158 153 76 0
0.143336 0.025385 0.292528 255 0 0
0.093147 0.689911 -0.368920 127 0 127
0.406759 0.087618 0.288296 255 0 0
-0.005956 0.015592 0.395470 255 0 0
0.364036 0.324320 0.319527 0 255 0
0.333784 0.201409 -0.176825 0 127 127
0.241980 -0.640910 -0.002189 153 76 0
0.113800 0.752131 -0.388388 127 0 127
0.297771 -0.656496 0.030959 153 76 0
-0.145964 0.582459 -0.332918 127 0 127
-0.412990 0.246289 -0.151155 153 76 0
-0.198270 -0.051226 -0.133444 255 0 0
-0.232758 -0.647702 -0.009248 153 0 76
-0.065616 -0.163636 0.334112 127 127 0
0.247188 -0.056019 -0.172201 127 0 127
-0.339303 -0.087097 -0.006783 153 0 76
-0.165838 0.846136 -0.444905 127 0 127
0.048288 -0.635074 -0.209775 76 0 153
0.065087 0.334718 -0.221507 127 0 127
-0.110727 -0.250950 0.062482 127 127 0
-0.102248 -0.128602 0.278026 127 127 0
0.132378 0.442166 -0.257117 127 0 127
0.013715 0.877180 -0.446377 127 0 127
-0.126238 0.020492 0.249820 255 0 0
0.389514 0.075858 0.191304 255 0 0
0.265967 0.110494 -0.185609 0 0 255
0.468881 -0.664525 -0.004274 153 76 0
0.275709 0.004962 0.458574 255 0 0
-0.325531 0.304723 -0.116474 76 153 0
-0.317141 0.760175 -0.373891 127 0 127
0.375759 0.255165 0.082661 0 255 0
0.278410 0.180403 -0.172716 0 127 127
-0.105289 0.773982 -0.408800 127 0 127
-0.001947 -0.594584 -0.143485 76 0 153
0.160286 -0.064050 -0.102269 255 0 0
-0.061574 0.020310 0.323543 255 0 0
0.391922 0.078735 0.232400 255 0 0
-0.259305 0.321558 -0.179501 127 0 127
0.428924 0.077467 0.099566 255 0 0
0.370719 0.063652 0.117234 255 0 0
-0.113694 -0.566634 0.201855 204 51 127
-0.316501 0.024448 0.383701 255 0 0
-0.395497 0.095979 0.106433 255 0 0
0.100065 0.864638 -0.427758 127 0 127
-0.134491 0.085739 -0.277379 0 0 255
0.106939 -0.285674 0.114037 127 127 0
0.134864 -0.656224 0.362701 0 0 255
-0.183635 0.835899 -0.439907 127 0 127
0.190731 -0.601060 0.008763 153 76 0
-0.285274 -0.030438 0.503579 255 0 0
-0.395126 0.039412 0.152701 255 0 0
0.292264 -0.106051 0.093967 76 0 153
0.318744 -0.127797 -0.170787 0 127 127
0.233042 0.331000 -0.172606 127 0 127
-0.317128 0.055840 0.176329 255 0 0
-0.046279 -0.068452 -0.147286 255 0 0
0.108873 0.042517 -0.242754 0 0 255
0.067583 -0.032398 0.550417 255 0 0
0.106702 0.723557 -0.379111 127 0 127
-0.030146 -0.289040 0.164973 127 127 0
-0.368691 0.333994 -0.015774 76 153 0
0.326056 0.294537 0.223936 0 255 0
0.273088 0.667759 -0.315773 127 0 127
-0.003312 -0.277866 0.082827 153 0 76
-0.155364 -0.029968 0.483637 255 0 0
0.004021 -0.271764 0.033216 153 76 0
-0.209866 -0.642249 0.325470 204 51 127
-0.386169 0.331510 0.179449 76 153 0
0.580583 -0.739372 -0.049990 76 0 153
-0.272568 -0.084614 0.179226 0 0 255
0.391932 0.089142 0.314035 255 0 0
0.432328 0.103839 0.157996 255 0 0
-0.226359 -0.647655 0.343470 204 51 127
0.047229 -0.604923 -0.233894 76 0 153
0.020411 0.019210 0.359055 255 0 0
0.416606 0.108653 0.233729 255 0 0
-0.012779 -0.353867 0.051394 153 0 76
0.247111 0.697022 -0.336406 127 0 127
-0.016469 0.189028 -0.201460 127 0 127
0.037409 -0.025672 -0.218711 127 0 127
-0.360192 0.015638 -0.047773 255 0 0
0.046893 0.825116 -0.429694 127 0 127
-0.008353 -0.011948 0.059827 255 0 0
-0.295838 0.656292 -0.331645 127 0 127
0.103986 0.438834 -0.261560 127 0 127
0.377032 0.057022 0.090485 255 0 0
-0.121988 0.166217 -0.196588 127 0 127
0.077120 -0.251622 0.084041 127 127 0
-0.337777 0.128089 -0.230377 153 76 0
-0.397254 0.320463 -0.130426 76 153 0
0.244499 0.503747 -0.253433 127 0 127
0.159547 0.350945 -0.208459 127 0 127
0.406897 0.172806 -0.045625 127 127 0
-0.059725 -0.140499 0.202203 127 127 0
-0.336277 0.028460 0.032424 255 0 0
-0.363985 0.074881 0.191386 255 0 0
-0.298189 0.798813 -0.382349 127 0 127
-0.261419 -0.020029 0.490211 255 0 0
0.164509 0.098741 -0.244136 0 0 255
0.242810 -0.034706 0.535492 255 0 0
0.178161 -0.607897 0.392059 0 0 255
-0.086594 -0.547876 0.041181 153 0 76
0.424133 0.088867 0.140969 255 0 0
0.326367 -0.036612 -0.024552 255 0 0
-0.279725 0.554940 -0.304646 127 0 127
0.037502 0.006963 0.449187 255 0 0
-0.121642 0.845318 -0.431234 127 0 127
0.410487 0.068082 0.063895 255 0 0
0.189032 -0.193919 0.315310 76 0 153
0.172516 0.455952 -0.253601 127 0 127
0.145005 0.122487 -0.196278 0 0 255
0.294461 -0.143198 -0.186829 0 127 127
0.144135 -0.150138 0.023385 204 51 127
0.054652 -0.706225 -0.520653 76 0 153
0.060513 -0.080166 -0.230022 127 0 127
0.070784 -0.127140 -0.243426 127 0 127
0.037671 -0.269644 0.156398 127 127 0
0.149720 -0.071035 -0.133724 255 0 0
-0.041665 0.131774 -0.276360 0 0 255
0.280265 -0.024807 -0.145303 0 127 127
-0.017805 -0.569484 0.041014 153 0 76
-0.167504 0.785364 -0.415679 127 0 127
-0.323137 0.025457 0.051193 255 0 0
-0.323846 -0.005854 0.455101 255 0 0
-0.350785 -0.715989 0.468495 127 127 0
-0.253090 -0.613031 0.358217 204 51 127
0.197585 -0.089175 -0.199628 127 0 127
-0.184090 0.821704 -0.416750 127 0 127
0.408683 0.566383 -0.200085 127 0 127
0.098626 -0.145143 0.286040 127 127 0
-0.011984 0.683502 -0.376754 127 0 127
0.263564 0.137544 -0.208582 0 0 255
-0.423979 0.081843 0.189513 255 0 0
-0.001140 0.804140 -0.418834 127 0 127
0.333414 0.327886 0.196389 0 255 0
-0.159743 0.130464 -0.279273 0 0 255
0.096127 -0.629249 0.293969 0 0 255
0.200646 -0.042399 0.545042 255 0 0
0.341282 0.133305 -0.165486 127 0 127
-0.370855 -0.028651 0.028849 153 0 76
-0.198262 0.115392 -0.225015 76 153 0
0.403116 -0.004625 0.091366 76 0 153
0.142843 -0.602214 0.359823 0 0 255
0.442387 0.649648 -0.232244 127 0 127
-0.234962 -0.074508 -0.160286 255 0 0
-0.354677 0.018190 0.401051 255 0 0
-0.177026 -0.157896 0.237454 0 0 255
0.136528 0.005938 0.474087 255 0 0
0.050087 -0.186736 0.349911 127 127 0
0.173928 0.018243 -0.184674 127 0 127
-0.019538 -0.723853 0.040884 153 0 76
0.289578 0.850228 -0.376361 127 0 127
-0.102510 -0.122091 -0.220790 127 0 127
0.390733 0.343925 0.263119 0 255 0
0.141364 0.850689 -0.420166 127 0 127
0.228937 0.146365 -0.147500 127 0 127
0.267918 -0.152456 -0.178524 0 127 127
0.321956 0.125019 -0.092517 127 0 127
0.162624 -0.081273 -0.194221 127 0 127
0.014890 0.009214 0.175292 255 0 0
0.015686 -0.536996 0.102029 153 0 76
-0.330148 0.509346 -0.250299 127 0 127
-0.333417 0.445044 -0.248145 127 0 127
0.288624 -0.026912 -0.029678 255 0 0
0.284792 0.080499 -0.122826 127 0 127
0.286193 0.259423 -0.113159 127 0 127
-0.349839 0.095772 -0.234548 76 0 153
-0.276865 -0.612978 -0.030324 153 0 76
-0.086609 -0.098066 -0.224553 127 0 127
-0.410486 -0.177000 0.116634 127 0 127
-0.191452 -0.260886 0.207131 153 0 76
0.262087 0.074546 -0.180151 0 0 255
0.294038 0.500887 -0.231351 127 0 127
-0.162857 0.081619 -0.260375 0 0 255
0.271347 0.082065 -0.149393 127 0 127
0.368257 -0.009756 0.151584 76 0 153
-0.304849 0.637941 -0.320666 127 0 127
-0.351431 0.750275 -0.346745 127 0 127
-0.135650 -0.127205 -0.241613 127 0 127
-0.357104 0.161027 -0.167438 153 76 0
0.107721 -0.228924 0.107315 127 127 0
0.259256 -0.128866 0.041696 76 0 153
-0.381251 0.248280 -0.075610 76 153 0
0.060723 0.055419 -0.260836 0 0 255
0.013281 0.181793 -0.219768 0 0 255
-0.385895 0.010129 0.410203 255 0 0
0.215971 -0.684796 0.506039 0 0 255
-0.170876 0.025141 0.264015 255 0 0
-0.175696 0.194021 -0.181761 127 0 127
-0.167619 -0.079702 -0.150226 255 0 0
-0.254129 -0.017005 0.445325 255 0 0
0.048138 -0.612948 -0.309579 76 0 153
-0.449790 0.302285 -0.091529 76 153 0
-0.188863 0.699069 -0.373642 127 0 127
0.125564 -0.647854 0.021371 153 76 0
-0.022465 -0.645026 0.026283 76 0 153
0.289515 -0.130231 -0.074317 76 0 153
0.214472 0.049030 -0.165518 127 0 127
-0.287315 0.764358 -0.374184 127 0 127
0.380726 0.698007 -0.279097 127 0 127
0.335187 0.265631 -0.086134 127 0 127
-0.058452 -0.220841 0.042254 127 127 0
0.111455 -0.106661 -0.210251 127 0 127
0.217128 -0.095727 0.259318 76 0 153
0.281938 0.066562 -0.184938 0 0 255
-0.418418 0.089877 0.218870 255 0 0
-0.415424 0.063760 0.243474 255 0 0
-0.169042 -0.102501 -0.227214 76 153 0
0.300676 0.050148 0.386059 255 0 0
-0.102188 -0.087531 -0.108696 153 76 0
0.076228 -0.788108 -0.468280 76 0 153
-0.258965 -0.083513 0.010769 153 0 76
-0.296194 -0.605174 -0.079276 153 0 76
-0.107163 -0.589147 0.212392 204 51 127
0.300006 -0.772291 0.524277 204 51 127
-0.383731 0.060755 0.219444 255 0 0
0.263146 -0.125037 0.074943 76 0 153
-0.363806 -0.737435 0.457961 127 127 0
0.331042 -0.037737 -0.067782 255 0 0
0.237803 0.008293 0.104198 255 0 0
0.377177 0.829063 -0.332060 127 0 127
-0.220340 0.042454 -0.268633 76 153 0
-0.136822 0.336891 -0.222517 127 0 127
-0.403325 0.098366 0.047355 255 0 0
-0.037416 -0.096924 -0.175248 255 0 0
-0.325100 0.050122 0.289157 255 0 0
0.296216 -0.139636 -0.139083 0 127 127
0.195544 -0.626364 0.454382 0 0 255
-0.020487 -0.628786 0.009450 76 0 153
0.372934 0.070102 0.292172 255 0 0
-0.142494 -0.134514 0.284759 127 127 0
0.385959 0.275217 0.227653 0 255 0
0.101158 0.162344 -0.204736 0 0 255
0.268369 0.217807 -0.134206 127 0 127
-0.268562 0.471017 -0.268781 127 0 127
0.021820 0.018227 0.258959 255 0 0
-0.250767 -0.610593 0.313109 204 51 127
-0.293136 0.011589 0.417456 255 0 0
-0.274278 0.112457 -0.167011 127 0 127
0.058549 -0.014474 0.056111 255 0 0
0.418927 -0.677076 -0.038234 153 76 0
0.067059 0.159947 -0.197462 0 0 255
-0.286846 0.413165 -0.218351 127 0 127
-0.041632 -0.636983 0.077884 204 51 127
0.012625 -0.593690 -0.211655 76 0 153
-0.358491 0.711331 -0.329371 127 0 127
0.328136 0.097156 -0.176621 127 0 127
-0.150068 -0.113814 -0.226098 76 153 0
0.114737 -0.173291 0.275476 76 0 153
-0.281828 0.037931 0.121150 255 0 0
0.415844 0.267887 0.148115 0 255 0
0.258250 0.101917 -0.214918 0 0 255
-0.051042 -0.627594 0.025608 153 0 76
0.063333 0.000152 0.478550 255 0 0
0.333108 -0.100072 -0.170952 0 127 127
0.078635 -0.140013 0.262408 127 127 0
0.100182 -0.006937 0.089862 255 0 0
-0.142752 -0.595118 0.250215 204 51 127
-0.074416 0.540548 -0.320119 127 0 127
0.374959 -0.013039 0.104686 76 0 153
-0.014822 -0.421891 0.043254 153 0 76
0.199302 0.462292 -0.249141 127 0 127
0.272102 0.046340 0.241474 255 0 0
-0.290324 0.718545 -0.356997 127 0 127
0.390182 0.474368 -0.160513 127 0 127
0.032271 -0.688992 0.096905 153 0 76
-0.355294 0.028011 -0.068747 255 0 0
0.104565 -0.068078 -0.209389 127 0 127
0.315663 -0.077370 -0.189727 0 127 127
0.312588 0.190897 -0.133714 127 0 127
-0.373871 0.675916 -0.309251 127 0 127
0.326900 -0.004434 0.048249 255 0 0
0.476565 0.639371 -0.215798 127 0 127
-0.005915 -0.597716 0.046292 153 76 0
0.009566 0.146978 -0.205530 0 0 255
0.236959 -0.064463 0.208534 76 0 153
-0.162798 -0.233003 0.210768 127 127 0
-0.339659 0.249553 -0.072041 76 153 0
0.173149 0.579227 -0.309342 127 0 127
-0.417735 0.108683 0.124318 255 0 0
0.269626 -0.104787 0.136388 76 0 153
0.396688 0.270192 0.292162 0 255 0
0.579181 -0.709612 -0.073666 76 0 153
0.421112 0.335671 0.289025 0 255 0
0.310331 0.277894 -0.101214 127 0 127
-0.230681 0.032478 0.256834 255 0 0
0.176234 0.029675 0.312354 255 0 0
0.312912 -0.100485 0.080987 76 0 153
0.307159 -0.034370 -0.011031 255 0 0
0.169036 -0.128369 -0.061673 204 51 127
0.075893 -0.286010 0.198064 127 127 0
0.494406 -0.685959 -0.009119 153 76 0
0.031110 -0.622026 -0.058278 76 0 153
0.162785 -0.007036 0.078623 255 0 0
0.322017 -0.023949 -0.155677 127 0 127
-0.018809 0.229329 -0.200029 127 0 127
0.078779 0.010327 0.182611 255 0 0
-0.012030 0.005970 -0.219996 127 0 127
0.533796 -0.712549 -0.100659 76 0 153
0.123132 -0.583446 0.289993 0 0 255
-0.224130 -0.163158 0.294282 0 0 255
-0.132565 0.016458 0.381599 255 0 0
-0.224128 -0.010679 -0.022318 255 0 0
-0.415611 0.055550 0.307945 255 0 0
-0.046042 0.094763 -0.225605 0 0 255
-0.436272 0.334588 -0.022588 76 153 0
-0.008410 -0.647375 -0.097009 76 0 153
-0.167771 0.150639 -0.261971 0 0 255
0.017101 -0.554312 0.057243 0 0 255
0.013573 -0.068741 0.564179 255 0 0
0.009543 -0.004623 0.097315 255 0 0
0.331163 0.330974 0.301628 0 255 0
-0.396713 0.045467 0.205690 255 0 0
-0.392612 -0.036644 0.053830 153 0 76
0.135003 -0.151592 0.339468 76 0 153
-0.372742 0.032292 0.367627 255 0 0
-0.328209 -0.168878 0.127982 127 0 127
0.156828 -0.015527 0.487708 255 0 0
-0.383514 0.017945 0.357735 255 0 0
0.166565 -0.120178 -0.026593 204 51 127
-0.190936 0.117620 -0.252901 0 0 255
0.026766 0.013582 0.210539 255 0 0
-0.203713 0.443467 -0.271507 127 0 127
-0.177666 -0.053041 -0.130683 255 0 0
-0.391401 0.046078 0.064247 255 0 0
-0.197593 0.484543 -0.280765 127 0 127
0.388395 0.048440 0.057260 255 0 0
-0.207329 -0.133102 -0.215929 76 153 0
-0.213717 0.403286 -0.250140 127 0 127
0.354317 0.049466 0.364935 255 0 0
-0.211228 0.082194 -0.198902 127 0 127
0.366967 0.248161 -0.014601 0 255 0
-0.376619 -0.789895 0.489715 127 127 0
-0.050411 0.013011 0.407284 255 0 0
0.413846 0.104878 0.150962 255 0 0
-0.250194 0.002560 -0.228881 76 153 0
0.129575 -0.043105 -0.047388 255 0 0
0.343658 0.712767 -0.304441 127 0 127
-0.402955 -0.784705 0.515174 127 127 0
-0.037655 0.647891 -0.363676 127 0 127
-0.380560 0.707857 -0.320695 127 0 127
-0.019162 -0.698343 0.114951 153 0 76
-0.361788 0.312678 -0.171760 76 153 0
-0.364209 0.167075 -0.200577 153 76 0
-0.050154 0.813101 -0.423171 127 0 127
-0.061726 -0.204470 0.335751 127 127 0
0.077339 0.508306 -0.296821 127 0 127
-0.109660 0.016543 0.380742 255 0 0
-0.004473 -0.532211 0.084964 153 0 76
0.348740 0.005394 0.008059 255 0 0
0.461455 0.320087 0.056272 0 255 0
0.468075 0.317191 0.125001 0 255 0
-0.482166 0.286441 0.163925 76 153 0
0.017014 0.122063 -0.208012 127 0 127
-0.157144 0.261653 -0.190568 127 0 127
0.176757 0.066757 -0.232944 0 0 255
0.079126 0.624272 -0.344871 127 0 127
0.358014 0.825205 -0.361077 127 0 127
0.124573 0.493018 -0.281870 127 0 127
-0.167271 -0.027581 -0.204392 127 0 127
-0.028324 -0.008799 0.072316 255 0 0
0.322606 0.067470 0.255671 255 0 0
0.456265 0.307207 -0.021356 0 255 0
-0.405653 0.074666 0.175894 255 0 0
-0.191997 -0.602197 -0.037956 153 0 76
0.071617 -0.283081 0.297377 127 127 0
0.395165 0.530585 -0.205238 127 0 127
-0.301734 0.601060 -0.306397 127 0 127
-0.132296 0.509304 -0.302626 127 0 127
-0.246807 -0.038962 -0.275951 76 153 0
0.286938 0.175572 -0.128753 127 0 127
-0.116387 -0.122035 -0.082421 153 0 76
0.212930 0.035477 0.290744 255 0 0
0.143161 0.026047 0.337892 255 0 0
-0.368282 -0.195883 0.102739 127 0 127
-0.400484 -0.761354 0.474270 127 127 0
-0.074819 0.060459 -0.214063 127 0 127
0.140258 -0.071429 -0.070737 76 0 153
-0.284438 -0.084353 0.022411 153 0 76
0.063494 -0.773882 -0.529086 76 0 153
0.244188 0.854962 -0.392636 127 0 127
-0.272882 -0.010838 0.429214 255 0 0
0.455804 0.248123 -0.051353 0 255 0
-0.399296 0.243430 -0.126001 76 153 0
-0.218823 0.826030 -0.430742 127 0 127
0.391012 0.325874 0.025763 0 255 0
-0.264563 -0.127722 -0.026754 0 0 255
-0.027049 -0.000064 0.114627 255 0 0
0.218894 -0.010677 -0.168297 127 0 127
0.012163 -0.640989 -0.275259 76 0 153
0.244746 -0.074987 -0.127677 255 0 0
0.170921 -0.103970 -0.217459 127 0 127
-0.403994 -0.737828 0.476133 127 127 0
-0.257942 -0.079196 -0.028459 0 0 255
0.074973 -0.002340 0.112256 255 0 0
-0.000674 -0.055865 0.568532 255 0 0
-0.377075 0.037034 -0.014327 255 0 0
0.082422 -0.046895 0.541656 255 0 0
-0.401103 0.053590 -0.039985 153 0 76
-0.263350 -0.089000 0.050950 153 0 76
-0.086010 0.825682 -0.434863 127 0 127
0.122119 -0.218259 0.332863 76 0 153
-0.003870 -0.146020 0.332802 127 127 0
0.200821 0.032952 0.356169 255 0 0
-0.122741 -0.091285 -0.091880 153 76 0
-0.038220 -0.718870 0.074203 153 0 76
0.085415 -0.729179 -0.460845 76 0 153
0.090447 -0.204887 0.322727 127 127 0
0.067731 0.105452 -0.263435 0 0 255
-0.030954 -0.134933 0.232709 127 127 0
0.279447 -0.045171 -0.179265 0 127 127
-0.243911 -0.116060 -0.223715 76 153 0
0.142022 0.733303 -0.376299 127 0 127
-0.303612 -0.021340 -0.121256 255 0 0
-0.466253 0.309039 -0.036893 76 153 0
0.366216 0.294161 -0.033360 0 255 0
0.254103 0.662200 -0.320004 127 0 127
-0.354053 0.496130 -0.260184 127 0 127
-0.082029 0.745562 -0.399486 127 0 127
0.161198 -0.085706 -0.122150 255 0 0
-0.093519 0.340021 -0.229369 127 0 127
0.398455 0.239230 0.054714 0 127 127
-0.209956 0.029389 0.252790 255 0 0
0.163117 0.100393 -0.181336 127 0 127
-0.343008 -0.685942 0.470792 204 51 127
-0.328076 0.563007 -0.294405 127 0 127
0.196548 0.007539 0.481535 255 0 0
0.394480 0.090921 0.152662 255 0 0
-0.336725 0.018931 0.349827 255 0 0
0.248770 0.391620 -0.196300 127 0 127
-0.146514 0.022807 0.301916 255 0 0
-0.385169 0.049095 -0.059176 255 0 0
-0.284979 0.140706 -0.234135 153 76 0
0.078327 0.183740 -0.250674 0 0 255
-0.380090 0.224809 -0.114406 153 76 0
0.160751 -0.159197 0.010110 204 51 127
-0.354694 0.254347 -0.041862 76 153 0
-0.058191 -0.546107 0.108751 204 51 127
-0.273154 0.074167 -0.231057 153 76 0
0.467651 0.305652 0.160665 0 255 0
0.032127 -0.032470 0.510049 255 0 0
0.401259 0.221889 -0.005947 127 127 0
-0.273927 0.015378 0.019613 255 0 0
-0.421031 0.246465 -0.098640 153 0 76
0.238755 -0.093481 -0.191678 127 0 127
-0.237402 -0.039539 -0.175051 127 0 127
0.078515 0.018798 0.389000 255 0 0
0.005512 0.185400 -0.258263 0 0 255
-0.256818 -0.641113 0.376023 204 51 127
0.446592 0.616581 -0.224791 127 0 127
-0.172354 -0.060851 0.533148 255 0 0
-0.185219 0.372693 -0.241171 127 0 127
0.215553 -0.651533 0.417272 0 0 255
-0.014905 -0.385862 0.054020 153 0 76
-0.084040 -0.041058 0.514196 255 0 0
0.064969 -0.009757 0.506231 255 0 0
0.019246 -0.031086 0.543285 255 0 0
-0.004541 -0.629167 -0.129678 76 0 153
0.419667 0.102697 -0.108040 127 127 0
0.042113 -0.631344 -0.155443 76 0 153
0.351113 -0.039921 0.124637 76 0 153
-0.396688 0.024523 -0.031350 153 0 76
-0.078011 0.786580 -0.421999 127 0 127
0.022321 -0.648133 0.075019 0 0 255
0.279426 0.035677 0.424040 255 0 0
0.097527 -0.015337 0.053295 255 0 0
0.294150 0.191708 -0.140251 0 127 127
0.351607 0.328721 0.120592 0 255 0
-0.190616 -0.272042 0.234650 153 0 76
-0.188805 0.409347 -0.258051 127 0 127
-0.388500 0.002545 -0.014121 153 0 76
0.121790 -0.036904 0.529077 255 0 0
0.405245 0.031261 0.075819 76 0 153
0.076830 0.041605 -0.210643 0 0 255
0.078495 -0.016305 -0.212489 127 0 127
0.147698 -0.135177 0.000894 204 51 127
-0.069999 0.160671 -0.270475 0 0 255
-0.186350 0.602545 -0.336342 127 0 127
-0.095012 -0.172814 0.084219 127 127 0
-0.272313 -0.205299 0.257242 0 0 255
-0.096641 0.078331 -0.274749 0 0 255
0.365193 0.326988 0.059051 0 255 0
-0.258310 0.032478 0.141804 255 0 0
-0.238413 -0.055165 -0.112329 255 0 0
-0.111017 -0.051396 0.553689 255 0 0
0.341588 0.483977 -0.197752 127 0 127
0.022945 -0.173382 0.083632 127 127 0
0.198076 0.307372 -0.175772 127 0 127
0.406871 0.082913 0.102011 255 0 0
0.277612 0.059508 -0.145542 0 127 127
0.394919 0.749479 -0.291499 127 0 127
0.107735 0.533553 -0.303612 127 0 127
0.195777 0.284405 -0.167473 127 0 127
0.249808 0.179011 -0.132795 127 0 127
0.444715 0.331907 0.260344 0 255 0
0.466333 0.251635 0.028943 0 255 0
-0.014790 -0.262197 0.299502 127 127 0
0.260384 -0.129385 -0.179186 127 0 127
0.304860 -0.735912 0.591695 204 51 127
0.126177 0.044973 -0.197661 127 0 127
-0.033455 -0.067171 -0.223852 127 0 127
0.110798 0.017889 0.410296 255 0 0
0.151377 -0.100143 -0.165522 255 0 0
-0.123293 -0.085617 -0.156077 153 76 0
0.303344 0.193745 -0.181882 0 127 127
-0.203917 0.792012 -0.403541 127 0 127
-0.078591 0.094488 -0.210818 127 0 127
0.043041 0.044850 -0.215562 127 0 127
-0.213208 -0.609562 -0.047751 153 0 76
-0.143494 -0.285433 0.164735 127 127 0
0.135112 -0.642593 0.274609 0 0 255
-0.324902 0.250771 -0.126704 153 0 76
-0.339314 -0.642402 0.407601 204 51 127
-0.014651 0.087561 -0.213811 0 0 255
-0.336944 -0.089537 0.044749 153 0 76
0.139615 -0.247648 0.104865 204 51 127
-0.345583 0.022376 -0.008600 255 0 0
0.581257 -0.723133 -0.091835 76 0 153
-0.216068 0.009914 0.068244 255 0 0
-0.007062 0.001760 0.464277 255 0 0
-0.098714 -0.077155 -0.232274 127 0 127
-0.249535 0.296883 -0.171806 127 0 127
-0.132596 -0.594018 0.036153 153 0 76
0.347121 0.030420 0.350707 255 0 0
-0.332745 0.314012 -0.134817 76 153 0
-0.295033 -0.018901 0.445306 255 0 0
-0.186192 -0.047093 -0.200134 127 0 127
0.026963 -0.129096 -0.248623 127 0 127
0.121261 -0.073523 -0.143837 255 0 0
-0.003219 0.005876 0.153437 255 0 0
0.172333 -0.030818 0.522376 255 0 0
0.205744 -0.020317 0.505247 255 0 0
0.025774 0.001806 0.131127 255 0 0
0.013308 -0.730096 0.097620 153 0 76
-0.397965 -0.172439 0.100443 127 0 127
-0.379027 0.583713 -0.284423 127 0 127
-0.308275 -0.102269 0.020747 153 0 76
0.148857 -0.585447 0.017605 153 76 0
0.310584 -0.054498 -0.189593 0 127 127
0.277392 0.051767 0.326935 255 0 0
-0.220178 0.235938 -0.239509 76 153 0
-0.477152 -0.742601 -0.161949 76 153 0
-0.313865 -0.037874 0.499383 255 0 0
-0.117230 -0.630807 -0.004562 153 0 76
0.286000 -0.071459 -0.091349 255 0 0
-0.088452 -0.053752 0.532955 255 0 0
-0.047635 -0.558428 0.074123 153 0 76
-0.105048 -0.647948 0.146625 204 51 127
0.331245 -0.044365 -0.044411 255 0 0
0.289621 -0.115614 -0.191650 0 127 127
-0.004882 -0.045419 0.530058 255 0 0
0.307712 0.079373 -0.184055 0 127 127
0.001747 -0.593657 0.127156 0 0 255
-0.181252 -0.585620 0.241653 204 51 127
-0.368294 0.048345 0.259799 255 0 0
0.403146 0.770339 -0.306612 127 0 127
0.417137 0.340959 0.162668 0 255 0
0.401379 0.149090 -0.141848 127 127 0
-0.194843 0.032292 -0.246594 76 153 0
0.347001 -0.016239 -0.034646 255 0 0
0.020108 0.710842 -0.384593 127 0 127
-0.161531 0.014130 0.148407 255 0 0
0.164572 -0.138706 -0.199556 127 0 127
-0.429241 0.260692 -0.022694 76 153 0
0.021104 -0.592260 0.161264 0 0 255
-0.117314 -0.019536 -0.214584 127 0 127
0.429561 -0.670557 0.004047 153 76 0
0.241337 -0.049888 -0.077459 255 0 0
-0.362320 0.232554 -0.113275 153 0 76
-0.302790 0.043855 0.296670 255 0 0
0.149254 -0.129520 -0.061293 76 0 153
-0.346918 -0.052796 0.010399 153 0 76
0.073162 0.019510 0.267899 255 0 0
0.009858 -0.057098 0.549100 255 0 0
-0.025877 -0.154281 0.334517 127 127 0
-0.119296 0.075467 -0.207280 127 0 127
0.388667 0.037914 0.142630 76 0 153
0.554867 -0.677815 -0.053308 153 76 0
0.339561 0.025488 -0.165074 0 127 127
-0.192066 0.223266 -0.239792 76 153 0
-0.415080 0.034760 -0.025179 153 0 76
-0.263760 0.823427 -0.401010 127 0 127
-0.132461 0.001936 0.094548 255 0 0
-0.116903 -0.113848 -0.110694 153 76 0
-0.352515 -0.769227 0.543016 127 127 0
-0.278159 0.176425 -0.163917 127 0 127
0.267707 -0.083824 -0.155062 127 0 127
0.212574 -0.005731 0.064458 255 0 0
0.110847 -0.282114 0.135875 127 127 0
-0.307920 -0.670822 0.432442 204 51 127
0.262299 -0.587322 0.020037 153 76 0
-0.128826 0.064333 -0.263304 0 0 255
-0.204425 -0.018844 0.453502 255 0 0
0.150906 -0.627151 0.302859 0 0 255
-0.129780 0.121494 -0.234615 0 0 255
0.026579 0.273663 -0.204062 127 0 127
0.538053 -0.780806 -0.038187 76 0 153
0.009892 -0.547926 -0.015691 76 0 153
-0.074370 -0.241490 0.310909 127 127 0
0.057849 0.106002 -0.205541 127 0 127
0.220693 -0.050786 0.559804 255 0 0
-0.154290 0.064333 -0.253469 0 0 255
-0.131369 -0.559810 0.024913 153 0 76
0.118027 0.270570 -0.188254 127 0 127
0.006806 -0.637058 -0.228811 76 0 153
-0.361434 0.056382 0.180285 255 0 0
0.011447 -0.361238 0.067552 153 0 76
0.400301 0.044077 0.099486 76 0 153
0.270077 -0.111129 0.045299 76 0 153
0.032816 0.798771 -0.414431 127 0 127
-0.369843 0.546202 -0.271623 127 0 127
-0.255665 0.739176 -0.373969 127 0 127
-0.293341 0.154101 -0.282150 153 76 0
0.071412 -0.662353 -0.417433 76 0 153
-0.130058 -0.299962 0.133377 127 127 0
-0.071726 -0.084233 -0.188344 255 0 0
0.374182 0.151230 -0.179523 127 0 127
-0.054674 -0.569368 0.092505 204 51 127
-0.352407 0.054618 0.016895 255 0 0
-0.256379 -0.046607 0.500740 255 0 0
-0.377003 -0.775241 0.550359 127 127 0
0.026071 -0.625969 -0.013786 76 0 153
0.278284 -0.078029 0.155482 76 0 153
0.239232 -0.027863 -0.015614 255 0 0
0.199856 0.246912 -0.156618 127 0 127
-0.411526 0.107017 0.098722 255 0 0
0.567627 -0.705868 -0.055729 76 0 153
-0.035798 -0.562391 0.105978 153 0 76
-0.031868 0.161628 -0.271345 0 0 255
0.402820 0.256011 0.090973 0 127 127
0.259281 -0.100656 -0.185310 0 127 127
-0.197924 -0.097068 -0.270599 76 153 0
-0.506143 -0.722610 -0.227551 76 153 0
0.160361 0.162261 -0.193282 0 0 255
-0.320074 0.736982 -0.364858 127 0 127
0.316388 -0.079305 -0.136544 0 127 127
-0.361774 -0.036699 0.008914 153 0 76
-0.348890 -0.762853 0.472654 127 127 0
0.272811 -0.106202 -0.019040 76 0 153
-0.435893 -0.664403 -0.102090 153 0 76
0.093396 -0.166436 0.320948 127 127 0
-0.080812 0.516167 -0.309234 127 0 127
-0.294400 0.047904 0.196007 255 0 0
-0.246709 0.768279 -0.386807 127 0 127
0.151283 -0.632355 0.390476 0 0 255
0.302427 0.274826 -0.131510 127 0 127
0.272039 -0.107938 0.095324 76 0 153
-0.077148 -0.003828 0.086581 255 0 0
-0.324909 0.292466 -0.182595 76 153 0
0.040120 -0.561834 0.063801 153 0 76
0.120961 0.633814 -0.342650 127 0 127
-0.354985 0.032433 0.313305 255 0 0
-0.381165 0.033584 0.019688 255 0 0
-0.135107 -0.607212 -0.012533 153 0 76
0.029887 -0.280459 0.204144 127 127 0
-0.359799 0.007803 0.010650 153 0 76
0.036946 -0.651774 0.052069 153 0 76
-0.039936 -0.672578 0.102042 153 0 76
0.081164 0.674844 -0.364787 127 0 127
0.041458 0.102955 -0.215786 0 0 255
0.297045 0.055140 0.240431 255 0 0
0.386090 0.070108 0.317425 255 0 0
0.055185 -0.578914 0.134097 0 0 255
-0.362348 0.076500 0.148051 255 0 0
0.357271 0.275493 0.224278 0 255 0
-0.282093 -0.086694 0.124086 0 0 255
0.178310 -0.188177 0.353793 76 0 153
0.180286 0.133222 -0.189394 0 0 255
0.036127 -0.656624 0.090613 153 0 76
-0.301138 -0.104947 0.003087 153 0 76
-0.364145 0.732490 -0.357651 127 0 127
0.274760 0.107243 -0.149678 0 127 127
-0.043001 -0.139480 -0.246333 127 0 127
0.504368 -0.751341 -0.039658 76 0 153
0.366211 0.418990 -0.173426 127 0 127
0.121232 -0.017310 0.045725 255 0 0
-0.507787 -0.705868 -0.193624 76 153 0
-0.061547 0.872906 -0.445958 127 0 127
0.228903 -0.645682 0.517853 0 0 255
0.027098 -0.721666 0.074814 153 0 76
-0.270068 -0.016665 -0.080412 255 0 0
-0.167838 -0.024589 -0.036284 255 0 0
-0.320472 0.286962 -0.153885 76 153 0
-0.359357 0.643290 -0.301605 127 0 127
0.432615 0.766882 -0.275809 127 0 127
0.110040 -0.287244 0.271046 204 51 127
0.032491 0.007326 0.165263 255 0 0
-0.183805 -0.070049 -0.213240 127 0 127
-0.423532 0.291177 0.198184 76 153 0
-0.006680 0.290885 -0.211677 127 0 127
0.182581 -0.077196 -0.199917 127 0 127
-0.004678 -0.588657 0.101577 0 0 255
0.224919 -0.109306 -0.169155 127 0 127
0.056594 -0.253865 0.142882 127 127 0
0.119637 -0.565228 0.027467 153 76 0
0.474639 0.275507 0.052931 0 255 0
0.321794 0.743117 -0.325462 127 0 127
0.427043 0.697019 -0.250321 127 0 127
0.320390 -0.003003 0.483537 255 0 0
0.367883 0.446299 -0.165592 127 0 127
0.140491 0.021447 0.401014 255 0 0
-0.001087 -0.573028 -0.106231 76 0 153
0.164142 -0.212484 0.329635 76 0 153
0.339404 0.056495 0.262400 255 0 0
0.344811 0.382406 -0.137850 127 0 127
0.095303 0.015215 0.421261 255 0 0
-0.465836 0.276942 -0.003502 76 153 0
0.008448 -0.569017 0.089572 204 51 127
0.389461 0.051861 0.202493 255 0 0
0.329163 0.019577 0.436091 255 0 0
-0.410493 0.021390 0.356669 255 0 0
0.386160 0.272746 0.249092 0 255 0
0.372622 0.358929 -0.145659 127 0 127
0.335026 0.307644 -0.140162 127 0 127
-0.177624 0.025372 0.289259 255 0 0
0.019937 0.684404 -0.375065 127 0 127
0.275373 0.144084 -0.153546 0 127 127
-0.298036 0.486224 -0.252462 127 0 127
-0.357377 -0.652117 0.476925 204 51 127
0.550381 -0.712940 -0.049034 76 0 153
-0.197955 0.128646 -0.197341 127 0 127
-0.010949 0.553679 -0.324895 127 0 127
-0.305821 -0.079909 0.037001 153 0 76
-0.260546 0.059278 -0.165021 127 0 127
-0.364121 0.242598 -0.166218 153 76 0
0.339324 -0.006633 -0.010204 255 0 0
-0.034516 -0.690714 0.055058 153 0 76
0.310583 0.165238 -0.091445 127 0 127
0.108629 0.790046 -0.402500 127 0 127
0.354588 -0.068242 0.139596 76 0 153
0.353697 -0.043737 0.088193 76 0 153
0.141738 -0.128383 -0.202958 127 0 127
-0.076968 -0.585799 0.014021 153 0 76
-0.251673 -0.134778 -0.138043 0 0 255
0.240892 0.019425 0.460653 255 0 0
0.316641 0.032091 0.396993 255 0 0
0.348347 0.008958 0.125030 255 0 0
-0.019249 -0.590665 -0.000031 76 0 153
-0.048002 -0.698228 0.090172 153 0 76
-0.353216 -0.180291 0.104089 127 0 127
0.356414 0.324585 0.078932 0 255 0
0.357471 0.751843 -0.312756 127 0 127
0.347146 0.322651 -0.141772 127 0 127
-0.025604 0.020073 0.339322 255 0 0
-0.353462 -0.617044 -0.069730 153 0 76
0.029168 -0.571134 -0.090960 76 0 153
0.450895 0.329689 0.092216 0 255 0
0.384372 0.559878 -0.213104 127 0 127
0.052906 0.010200 0.184249 255 0 0
0.383236 0.020455 0.183400 255 0 0
-0.073261 0.017224 0.376196 255 0 0
0.275964 0.777863 -0.356582 127 0 127
-0.316509 -0.090391 0.079114 153 0 76
0.329822 0.119979 -0.135244 127 0 127
0.015163 0.011122 -0.218263 127 0 127
0.456254 0.301389 -0.042000 0 255 0
0.233584 -0.082865 0.227896 76 0 153
-0.037462 -0.753053 0.062376 153 0 76
0.288498 -0.044062 -0.072310 255 0 0
-0.232275 0.085968 -0.224983 76 153 0
-0.311257 0.070360 -0.258134 153 76 0
-0.122109 -0.643474 0.229932 204 51 127
-0.388494 -0.701418 0.501277 127 127 0
-0.074740 -0.040986 0.547456 255 0 0
0.269569 0.071781 -0.133354 127 0 127
-0.091318 -0.051287 -0.100356 255 0 0
-0.131692 0.861587 -0.436634 127 0 127
-0.379432 0.646538 -0.319271 127 0 127
0.242287 -0.636156 0.480079 0 0 255
-0.094495 -0.586905 0.053531 153 0 76
0.044170 0.013769 -0.215573 127 0 127
0.051744 -0.021071 0.028900 255 0 0
0.094943 0.846123 -0.423015 127 0 127
-0.088126 0.849837 -0.451649 127 0 127
0.133653 -0.022411 0.540041 255 0 0
0.268417 -0.002621 0.045492 255 0 0
0.170744 -0.043046 -0.049436 255 0 0
0.112923 -0.587522 0.239728 0 0 255
-0.176998 0.495586 -0.290365 127 0 127
-0.132083 -0.302058 0.231579 127 127 0
-0.114667 -0.277384 0.077016 127 127 0
0.389587 0.341730 0.163393 0 255 0
0.376565 0.310393 0.325734 0 255 0
-0.000928 -0.272842 0.051891 153 76 0
0.468492 0.293145 0.142618 0 255 0
0.239109 0.057557 -0.152367 127 0 127
0.326062 0.428807 -0.176264 127 0 127
-0.396003 0.269628 0.170674 76 153 0
0.323472 0.162603 -0.179484 0 127 127
0.298099 0.029750 0.449084 255 0 0
-0.222547 0.315405 -0.190665 127 0 127
-0.041450 0.855040 -0.437386 127 0 127
0.317043 0.041232 0.360193 255 0 0
-0.372449 -0.016819 -0.042775 153 0 76
0.384622 0.264764 -0.078683 0 255 0
-0.169737 -0.185693 0.239024 0 0 255
-0.340144 0.042870 0.243760 255 0 0
0.082175 0.208221 -0.190380 127 0 127
-0.030670 0.007816 0.161389 255 0 0
0.391949 -0.652678 -0.032525 153 76 0
0.068047 -0.052412 0.572410 255 0 0
0.277152 -0.633400 -0.009228 153 76 0
0.254712 -0.139829 -0.194025 127 0 127
-0.006325 -0.088232 -0.145878 255 0 0
-0.011750 -0.044676 -0.065920 255 0 0
-0.500762 -0.709526 -0.174692 0 127 127
-0.142357 0.642769 -0.357654 127 0 127
0.422033 0.281860 -0.084152 0 255 0
-0.413604 0.004780 0.040974 153 0 76
0.299030 -0.024839 -0.142331 0 127 127
0.000116 -0.291810 0.052056 153 0 76
0.088949 -0.058219 0.559345 255 0 0
-0.100406 0.075530 -0.231445 0 0 255
-0.332955 0.104549 -0.239863 76 0 153
0.119308 0.138150 -0.201238 0 0 255
0.254823 0.639072 -0.310217 127 0 127
-0.391541 0.075563 0.243863 255 0 0
-0.050234 0.018494 0.359874 255 0 0
0.360843 0.416043 -0.147275 127 0 127
-0.069477 -0.112071 -0.249465 127 0 127
-0.224496 -0.037860 0.524119 255 0 0
-0.413593 0.108343 0.063627 255 0 0
-0.271499 0.028168 0.082058 255 0 0
-0.013328 -0.075893 -0.235912 127 0 127
0.143363 -0.038882 -0.033824 255 0 0
0.144239 -0.153609 0.295950 76 0 153
-0.250858 -0.197574 0.139632 127 0 127
0.350528 0.307122 0.052866 0 255 0
0.359027 0.379986 -0.162035 127 0 127
-0.169011 0.020617 0.196366 255 0 0
-0.137817 -0.111754 -0.093998 153 76 0
-0.227564 -0.051680 -0.147071 255 0 0
0.440788 0.301001 0.295295 0 255 0
-0.223135 0.464532 -0.265853 127 0 127
0.316442 0.356442 -0.140222 127 0 127
-0.398602 -0.205246 0.134106 127 0 127
-0.325606 -0.658718 -0.051605 153 0 76
0.070000 -0.739237 -0.534354 76 0 153
-0.284593 0.787343 -0.393202 127 0 127
0.035468 -0.698932 0.049346 153 0 76
0.272052 0.266924 -0.124572 127 0 127
-0.226492 -0.147065 0.272784 0 0 255
-0.275789 0.195769 -0.157342 127 0 127
0.047121 -0.005173 0.098139 255 0 0
0.129004 0.707869 -0.369672 127 0 127
-0.032661 -0.142070 0.199168 127 127 0
-0.246193 0.013342 0.410232 255 0 0
0.072873 -0.028849 -0.000288 255 0 0
0.243186 -0.111806 -0.144555 0 127 127
0.331176 0.614066 -0.268849 127 0 127
0.276525 0.110605 -0.124405 127 0 127
0.399403 0.066552 0.129496 76 0 153
-0.268207 -0.097136 0.158442 0 0 255
0.456648 0.761785 -0.282884 127 0 127
-0.344055 0.028330 0.376884 255 0 0
0.381328 0.008372 0.112249 76 0 153
0.261570 -0.684711 0.573839 0 0 255
0.414066 0.037488 0.116157 76 0 153
0.028168 0.010948 0.431112 255 0 0
0.086568 -0.019831 0.035486 255 0 0
0.223097 0.710832 -0.348877 127 0 127
0.328863 -0.058587 -0.073992 255 0 0
-0.037948 -0.097164 -0.225071 127 0 127
-0.005666 -0.567831 0.023966 153 0 76
0.237799 -0.108119 0.155263 76 0 153
0.153901 -0.649906 0.307775 0 0 255
0.110869 0.822297 -0.420826 127 0 127
0.093053 -0.596189 0.285304 0 0 255
-0.327358 0.257804 -0.088847 76 153 0
0.274515 -0.150056 -0.159822 0 127 127
0.422032 0.276816 0.226083 0 255 0
0.385499 -0.038022 0.078450 76 0 153
0.150019 0.249249 -0.174676 127 0 127
0.017833 -0.003795 0.483564 255 0 0
-0.266899 -0.150720 0.228755 0 0 255
-0.182537 -0.605829 0.232318 204 51 127
0.265287 -0.054411 -0.162929 127 0 127
0.320253 0.230300 -0.169661 0 127 127
0.094383 -0.192909 0.132267 127 127 0
0.022085 -0.255191 0.035964 127 127 0
0.376294 0.406471 -0.130331 127 0 127
0.261654 -0.015017 0.011360 255 0 0
0.365206 0.524460 -0.206372 127 0 127
-0.181600 -0.589051 0.277675 204 51 127
-0.012748 -0.567863 -0.040831 76 0 153
0.410362 0.454423 -0.142268 127 0 127
0.247113 0.534881 -0.267490 127 0 127
0.356499 0.069294 0.163904 255 0 0
0.055124 -0.638882 0.221756 0 0 255
0.102874 0.340275 -0.217512 127 0 127
-0.020775 -0.271764 0.086564 153 76 0
0.396208 0.026660 0.106395 255 0 0
-0.138610 -0.570032 0.205854 204 51 127
0.144601 -0.071707 -0.199258 127 0 127
-0.205378 0.007612 -0.267131 76 153 0
0.058937 -0.667604 -0.301932 76 0 153
-0.010745 0.741481 -0.397464 127 0 127
-0.361540 -0.030622 0.458186 255 0 0
0.299468 0.061770 -0.141048 127 0 127
-0.080835 -0.292711 0.137281 127 127 0
0.368522 -0.615455 0.009483 153 76 0
-0.251550 -0.008148 -0.170566 127 0 127
-0.140937 0.062304 -0.204255 127 0 127
0.339855 -0.751089 0.591284 204 51 127
0.344532 0.079338 -0.185862 127 0 127
-0.165092 0.218412 -0.183469 127 0 127
-0.339348 -0.727778 0.493595 127 127 0
0.380338 0.163368 -0.143139 127 0 127
0.053663 0.521680 -0.306175 127 0 127
-0.000585 -0.627752 -0.163904 76 0 153
-0.043735 0.464705 -0.286771 127 0 127
-0.100725 -0.029649 0.489217 255 0 0
0.207130 0.695894 -0.347652 127 0 127
0.306908 0.056616 0.222401 255 0 0
0.181345 0.067547 -0.189188 127 0 127
-0.089493 -0.153962 0.137818 127 127 0
-0.403072 0.078082 0.073055 255 0 0
-0.223024 0.247005 -0.167440 127 0 127
0.084952 0.081174 -0.204190 127 0 127
-0.317435 0.122109 -0.253801 153 76 0
0.054354 -0.288998 0.179735 127 127 0
0.007256 -0.255071 0.064483 127 127 0
-0.086737 -0.066255 -0.145828 255 0 0
0.350567 0.059148 0.315758 255 0 0
0.397558 0.045849 0.159780 76 0 153
-0.264851 -0.180315 0.221870 0 0 255
-0.132469 -0.600182 0.176977 204 51 127
-0.077049 -0.012694 0.496597 255 0 0
-0.161002 0.007726 0.109639 255 0 0
0.043024 0.167163 -0.266518 0 0 255
-0.211764 0.197299 -0.220436 76 153 0
0.218962 -0.016346 0.025944 255 0 0
0.061804 -0.293927 0.230520 127 127 0
-0.163470 -0.567746 0.011215 153 0 76
-0.220373 -0.598438 0.283691 204 51 127
0.341733 0.276180 0.148046 0 255 0
0.082187 -0.086367 -0.176698 255 0 0
0.294321 0.307706 -0.143512 127 0 127
-0.409377 0.053402 0.271813 255 0 0
0.403722 0.081383 0.173695 255 0 0
0.175345 0.008737 0.144977 255 0 0
0.136606 -0.096820 -0.202625 127 0 127
-0.156258 0.075235 -0.199484 127 0 127
0.285447 -0.135264 -0.029216 76 0 153
-0.342756 -0.638195 -0.106695 153 0 76
-0.013468 -0.644718 -0.052608 76 0 153
0.087814 -0.299982 0.135629 127 127 0
-0.043182 -0.231746 0.324323 127 127 0
0.405231 0.202178 -0.018776 127 0 127
-0.329465 0.005993 0.385321 255 0 0
-0.002526 -0.292461 0.159452 127 127 0
-0.065269 -0.026039 -0.006958 255 0 0
0.011940 -0.025413 0.007462 255 0 0
-0.056935 -0.275582 0.141322 127 127 0
0.027504 -0.653763 -0.403755 76 0 153
-0.242536 0.177256 -0.268790 76 153 0
-0.313068 0.782955 -0.372781 127 0 127
0.161942 -0.087318 -0.054742 76 0 153
0.282305 -0.080758 0.131446 76 0 153
-0.331774 0.241109 -0.142150 153 0 76
0.343740 0.032295 -0.129463 127 0 127
0.273145 0.816454 -0.371012 127 0 127
-0.115269 0.786957 -0.421088 127 0 127
0.003181 -0.625660 -0.196560 76 0 153
0.324311 -0.104565 -0.140630 127 0 127
-0.213126 -0.026127 -0.210251 127 0 127
0.026113 -0.536550 0.057503 153 76 0
-0.339223 0.048884 0.029956 255 0 0
-0.054068 0.123828 -0.226379 0 0 255
-0.193660 -0.010332 0.478536 255 0 0
-0.221294 0.163431 -0.169678 127 0 127
-0.414048 0.257061 -0.034728 76 153 0
0.096079 -0.284997 0.221481 127 127 0
-0.014622 -0.039602 -0.048095 255 0 0
0.047874 -0.299530 0.245982 127 127 0
0.388797 0.028759 0.017972 255 0 0
0.012598 -0.009186 0.075670 255 0 0
-0.287774 -0.048530 -0.127573 255 0 0
-0.238753 -0.202918 0.233479 0 0 255
-0.119451 -0.033112 -0.047007 255 0 0
0.366453 0.480079 -0.180997 127 0 127
-0.236966 -0.073967 -0.277278 76 153 0
-0.037225 -0.538298 0.101354 204 51 127
0.175546 0.528351 -0.286631 127 0 127
0.009093 -0.325773 0.061418 153 0 76
0.319441 -0.102484 -0.188181 0 127 127
-0.053057 -0.127870 0.278063 127 127 0
-0.128303 -0.022397 0.469442 255 0 0
-0.198569 0.525740 -0.300406 127 0 127
0.005192 -0.432520 0.089012 153 0 76
0.233904 -0.061092 0.170187 76 0 153
0.002824 -0.560914 0.046951 153 76 0
0.167669 -0.587151 0.056465 153 76 0
-0.117746 0.306182 -0.212047 127 0 127
-0.026086 -0.033639 0.505792 255 0 0
-0.328590 0.059519 0.139849 255 0 0
0.438742 0.294349 -0.073967 0 255 0
-0.035422 0.064420 -0.272960 0 0 255
-0.231351 0.196333 -0.195312 127 0 127
-0.373080 0.054229 0.043375 255 0 0
0.146699 0.005473 0.138715 255 0 0
-0.355819 -0.008009 0.453252 255 0 0
0.307023 0.061506 0.269454 255 0 0
-0.405993 -0.011826 0.010759 153 0 76
0.049311 -0.741883 -0.517601 76 0 153
0.006227 0.167674 -0.266239 0 0 255
0.233878 -0.601253 0.000715 153 76 0
0.155117 -0.048164 -0.194973 127 0 127
0.209622 0.653027 -0.330013 127 0 127
0.452408 0.564636 -0.199847 127 0 127
0.183851 -0.003420 0.087623 255 0 0
0.171204 -0.629513 0.423194 0 0 255
0.350603 -0.062022 0.173514 76 0 153
0.039344 -0.593953 -0.142163 76 0 153
-0.144562 -0.249794 0.110762 127 127 0
0.427334 0.325622 0.031215 0 255 0
-0.328772 -0.001145 -0.100559 255 0 0
-0.148613 0.603931 -0.341805 127 0 127
0.057684 0.152697 -0.265325 0 0 255
-0.405247 -0.714578 0.510144 127 127 0
-0.027439 -0.634031 0.126652 204 51 127
0.459058 0.325717 0.200472 0 255 0
0.197816 -0.015259 0.533307 255 0 0
0.078081 -0.644650 0.173618 0 0 255
-0.400850 0.067112 0.005255 153 0 76
0.067946 -0.590267 0.156252 0 0 255
-0.267532 -0.061171 -0.206003 127 0 127
-0.221491 -0.610966 -0.004484 153 0 76
-0.248070 -0.100962 -0.255256 76 153 0
-0.341916 0.063579 0.226065 255 0 0
-0.276197 0.054123 -0.176436 127 0 127
0.087988 0.652548 -0.355083 127 0 127
-0.096290 -0.281879 0.179012 127 127 0
0.288855 0.003830 -0.188925 0 127 127
0.271473 0.788939 -0.370877 127 0 127
0.460482 0.262574 0.095568 0 255 0
-0.011722 -0.688604 0.050730 153 0 76
-0.276152 0.527689 -0.293454 127 0 127
0.129749 -0.261660 0.128655 204 51 127
-0.243500 -0.118546 -0.125791 0 0 255
-0.056303 0.843120 -0.440876 127 0 127
-0.267989 -0.055098 -0.129648 255 0 0
-0.388018 -0.656894 0.464637 204 51 127
0.336083 0.840278 -0.373602 127 0 127
0.177420 0.181870 -0.165763 127 0 127
-0.313849 -0.662952 -0.094190 153 0 76
-0.195766 0.026014 -0.208317 127 0 127
0.237377 0.091813 -0.176834 0 0 255
0.129507 -0.613145 0.065066 153 76 0
0.303898 0.223650 -0.176262 0 127 127
0.452057 -0.636851 -0.005538 153 76 0
0.252730 -0.078711 -0.104233 255 0 0
-0.218754 0.053195 -0.184168 127 0 127
0.185287 -0.048942 0.554000 255 0 0
0.144889 0.522465 -0.291172 127 0 127
0.028809 -0.569499 0.087280 153 0 76
-0.301655 -0.054626 0.507773 255 0 0
0.342685 0.599531 -0.256535 127 0 127
0.250732 -0.095359 0.115454 76 0 153
-0.332615 0.695448 -0.345170 127 0 127
0.157244 0.862991 -0.417362 127 0 127
-0.387200 -0.044668 0.014396 153 0 76
-0.123362 -0.058951 -0.131893 153 76 0
0.061833 -0.571876 0.222768 0 0 255
0.168004 0.214259 -0.167321 127 0 127
-0.139294 -0.142162 0.214561 127 127 0
0.212248 0.737724 -0.361620 127 0 127
0.235212 0.035073 0.233234 255 0 0
-0.131120 0.021821 0.322316 255 0 0
0.253623 0.080582 -0.142521 127 0 127
-0.230444 -0.181651 0.298423 0 0 255
-0.210652 -0.079604 -0.190524 127 0 127
-0.346713 0.047304 0.107890 255 0 0
0.017037 0.773491 -0.407258 127 0 127
-0.369757 0.202231 -0.173572 76 0 153
-0.017427 -0.156681 0.139241 127 127 0
0.372705 -0.005579 -0.027967 255 0 0
0.370250 0.071059 0.262504 255 0 0
0.027970 -0.086443 -0.233912 127 0 127
-0.217473 -0.005329 0.003131 255 0 0
-0.216297 0.132961 -0.191387 127 0 127
0.407783 0.321394 -0.000064 0 255 0
0.212598 0.035806 0.315972 255 0 0
0.057476 0.137460 -0.201686 127 0 127
0.180766 -0.612625 0.363703 0 0 255
0.340481 -0.033757 -0.177795 0 127 127
0.330038 -0.625318 -0.019261 153 76 0
0.158544 0.005558 0.479368 255 0 0
0.007501 -0.647172 0.025879 153 0 76
0.259345 0.036392 0.203000 255 0 0
-0.149374 0.038529 -0.204040 127 0 127
0.027214 -0.760549 0.067507 153 0 76
0.089915 0.171279 -0.192022 127 0 127
-0.255031 0.266106 -0.158035 127 0 127
0.142755 0.570839 -0.312365 127 0 127
-0.378884 0.006633 0.383749 255 0 0
0.195417 -0.088974 -0.130585 255 0 0
-0.173815 0.858249 -0.433143 127 0 127
-0.150291 -0.255208 0.147128 127 127 0
-0.174478 -0.633688 -0.030601 153 0 76
0.012806 -0.609056 -0.252121 76 0 153
-0.156745 -0.221487 0.168355 127 127 0
-0.329795 0.672456 -0.325286 127 0 127
0.358631 0.281140 -0.012988 0 255 0
-0.143829 -0.009774 0.033093 255 0 0
0.009308 -0.555844 -0.056618 76 0 153
-0.038335 0.003022 0.130944 255 0 0
-0.212233 -0.017293 -0.036293 255 0 0
-0.145840 -0.015059 0.493517 255 0 0
-0.282275 0.808931 -0.412247 127 0 127
-0.350847 0.134804 -0.192217 76 0 153
0.191285 0.013800 -0.178172 127 0 127
-0.278033 0.495094 -0.277509 127 0 127
0.297476 0.041022 -0.186633 0 127 127
-0.436569 0.344443 0.125916 76 153 0
-0.348695 -0.636803 -0.062685 153 0 76
-0.240272 0.023509 0.366087 255 0 0
-0.153203 -0.179508 0.011479 153 0 76
-0.261810 0.138331 -0.284613 153 76 0
-0.200014 0.161470 -0.192258 127 0 127
0.347126 0.077301 0.235407 255 0 0
0.032952 -0.577738 -0.112770 76 0 153
-0.410704 0.049405 0.325153 255 0 0
0.350125 0.087614 -0.131932 127 0 127
0.038257 0.020505 0.334894 255 0 0
-0.084531 0.432859 -0.271490 127 0 127
-0.311732 0.566098 -0.286340 127 0 127
0.198908 0.181442 -0.157274 127 0 127
0.194449 -0.006060 0.514283 255 0 0
-0.187524 -0.028659 -0.213919 127 0 127
0.309036 -0.133101 -0.151859 0 127 127
-0.230763 -0.639561 0.284116 204 51 127
-0.369720 0.074942 0.062410 255 0 0
0.425118 0.089860 0.086399 255 0 0
-0.103635 -0.027918 -0.023057 255 0 0
-0.171763 0.014146 0.401116 255 0 0
-0.174669 -0.261860 0.156774 153 0 76
-0.107211 -0.097968 -0.190391 255 0 0
-0.301117 0.703205 -0.348396 127 0 127
0.150505 0.409489 -0.238232 127 0 127
-0.011604 -0.126002 -0.225876 127 0 127
0.364832 0.012368 0.094393 255 0 0
0.020026 -0.581662 0.037854 153 76 0
-0.179076 -0.107080 -0.204128 76 153 0
0.034062 -0.647069 -0.083295 76 0 153
0.149731 0.180966 -0.222685 0 0 255
-0.162822 0.622491 -0.347515 127 0 127
0.321198 -0.073844 0.080505 76 0 153
-0.193450 -0.069195 -0.171637 255 0 0
-0.271055 0.341331 -0.219938 127 0 127
0.350680 0.259091 -0.103697 127 0 127
-0.061285 -0.646418 0.020866 153 0 76
0.254429 0.865559 -0.405669 127 0 127
0.192236 -0.099080 -0.071496 76 0 153
-0.271650 -0.002829 -0.042004 255 0 0
-0.376596 0.341657 0.109034 76 153 0
0.179941 -0.045832 -0.186455 127 0 127
0.350140 0.268711 0.054603 0 255 0
0.240426 -0.062488 -0.061146 255 0 0
0.004837 -0.147309 0.182424 127 127 0
0.022953 -0.624201 0.013531 76 0 153
0.255583 -0.749497 0.534091 204 51 127
0.181873 0.001414 0.108664 255 0 0
0.236798 -0.683856 0.542523 0 0 255
-0.323643 -0.022632 0.484299 255 0 0
-0.075228 -0.044759 -0.075725 255 0 0
-0.314554 0.151313 -0.253668 153 76 0
-0.136960 -0.081258 -0.121656 153 76 0
-0.458238 0.303458 -0.067092 76 153 0
-0.058002 -0.019010 0.023171 255 0 0
-0.316457 -0.684071 0.441964 204 51 127
-0.151307 -0.203647 0.120783 127 127 0
-0.267863 -0.117377 0.001919 153 0 76
0.239861 0.255084 -0.139107 127 0 127
0.302250 0.856906 -0.387926 127 0 127
0.072817 -0.011268 0.070288 255 0 0
-0.110369 0.021417 0.280669 255 0 0
-0.409225 0.088992 -0.009720 255 0 0
0.287006 0.097209 -0.138587 0 127 127
0.223368 0.150934 -0.180410 0 0 255
0.193161 0.786523 -0.384438 127 0 127
0.361934 0.811934 -0.332859 127 0 127
-0.089969 0.252732 -0.199452 127 0 127
0.383141 0.038119 0.216285 255 0 0
0.346291 0.056756 0.392638 255 0 0
0.018235 -0.732239 0.047851 153 0 76
0.280460 0.631606 -0.298286 127 0 127
0.185589 0.567418 -0.300828 127 0 127
0.120042 0.101233 -0.253302 0 0 255
-0.398193 0.056957 0.253017 255 0 0
-0.024499 -0.006408 0.485913 255 0 0
0.053355 -0.162063 0.346770 127 127 0
0.426074 0.235488 0.038335 127 0 127
-0.329845 -0.760025 0.514449 127 127 0
0.071817 -0.645846 0.076962 153 76 0
0.180020 -0.569944 0.027260 153 76 0
-0.347387 0.478585 -0.256676 127 0 127
0.335953 0.310247 0.158715 0 255 0
0.148330 -0.005187 0.089816 255 0 0
0.068774 0.789984 -0.408095 127 0 127
-0.028487 -0.489648 0.060115 153 0 76
-0.216063 -0.017884 -0.269816 76 153 0
0.335762 -0.079862 -0.124954 127 0 127
0.217589 0.121451 -0.181885 0 0 255
-0.297710 -0.612608 -0.040758 153 0 76
0.374169 0.315661 -0.014643 0 255 0
-0.430845 0.259514 -0.142940 76 153 0
0.265531 0.320525 -0.150881 127 0 127
-0.403718 -0.167575 0.133423 127 0 127
0.425054 0.754281 -0.287538 127 0 127
-0.544684 -0.745077 -0.155007 76 153 0
0.334268 0.311640 -0.101322 127 0 127
-0.166518 0.356947 -0.226606 127 0 127
0.299879 0.122542 -0.184220 0 127 127
0.153705 -0.015435 0.047505 255 0 0
0.396125 0.496144 -0.194183 127 0 127
0.351617 0.049970 0.176862 255 0 0
0.153996 -0.174741 0.052744 204 51 127
0.232586 -0.065321 -0.117508 255 0 0
-0.166315 0.000549 0.069914 255 0 0
-0.106652 -0.022979 0.473185 255 0 0
-0.112586 0.365162 -0.238989 127 0 127
-0.194079 0.149608 -0.251417 0 0 255
0.035530 -0.593942 0.039876 153 76 0
-0.400166 0.056541 0.171775 255 0 0
0.141552 0.014098 0.188152 255 0 0
0.420837 0.242297 -0.037589 0 255 0
0.116420 0.017045 0.224266 255 0 0
-0.495803 0.306958 0.121547 76 153 0
0.215021 0.456968 -0.241350 127 0 127
-0.024079 0.020181 0.308455 255 0 0
0.294618 -0.595295 0.002104 153 76 0
0.326200 0.405583 -0.177890 127 0 127
0.329266 0.006402 -0.103955 127 0 127
0.263297 0.282119 -0.148724 127 0 127
-0.351939 0.006251 0.384946 255 0 0
-0.248386 0.814285 -0.420516 127 0 127
-0.135617 -0.002211 0.462280 255 0 0
-0.191272 0.025217 0.320651 255 0 0
0.306684 -0.024066 -0.030947 255 0 0
0.302686 0.811591 -0.368010 127 0 127
0.233987 -0.655730 0.450316 0 0 255
0.037200 -0.676116 -0.482274 76 0 153
0.017017 -0.068486 -0.138946 255 0 0
0.251010 -0.042790 -0.059910 255 0 0
0.294601 0.572333 -0.265868 127 0 127
-0.189874 0.019807 0.370090 255 0 0
-0.263736 -0.047030 0.522301 255 0 0
0.306662 0.586677 -0.267249 127 0 127
-0.172416 -0.196652 0.158608 127 0 127
-0.206075 -0.595763 0.265348 204 51 127
-0.015272 -0.329941 0.080932 153 0 76
-0.360736 0.053437 0.216514 255 0 0
0.204618 0.030939 0.256708 255 0 0
0.099979 0.022186 0.356141 255 0 0
0.242705 -0.089823 -0.162699 127 0 127
0.193824 0.027104 0.402897 255 0 0
0.413792 -0.634354 0.005095 153 76 0
